# .PCD v0.7 - Point Cloud Data file format
VERSION 0.7
FIELDS x y z
SIZE 4 4 4
TYPE F F F
COUNT 1 1 1
WIDTH 1470
HEIGHT 1
VIEWPOINT 0 0 0 1 0 0 0
POINTS 1470
DATA ascii
-2.0632954 -0.15910593 9.233737
-1.0119298 -1.6589403 10.145782
-1.0360297 -2.0637524 10.594572
-2.21013 -2.8321891 11.711291
1.9240518 -1.2229873 9.35396
-1.5102804 0.28193223 9.0233583
0.052262515 1.553949 7.6493292
-1.2334546 1.5601891 7.8310728
-0.80779099 -2.116081 10.555367
-0.036166925 1.5054538 7.7419896
-0.33546084 -3.9529357 12.830327
-5.4068265 -1.0121268 10.148647
-1.5269805 -0.85398358 8.5306368
-5.2491961 -2.8793826 11.332894
-3.1310804 -0.67479324 9.664155
-1.3293737 -3.6943212 12.383108
-2.695164 0.89859933 8.521287
-2.6579399 0.84509331 8.4050827
-2.6796503 0.7103318 8.4746904
-1.9751909 0.56076264 8.6908064
-3.4744604 -0.57516408 9.4796228
-2.0165672 0.50481129 8.5810156
-3.6070857 -3.6689231 12.554525
-0.26678631 -3.4874079 11.942611
-2.3910496 0.3996602 8.8618412
-2.3310275 0.43988276 8.8276367
-0.21520683 -3.0600562 11.639553
-2.2185814 -2.477066 11.295777
-3.0599697 -0.34988832 9.3332224
-3.983259 -3.3685839 12.148968
0.23923473 -3.2087603 11.834944
-0.4713451 -3.2592783 11.862958
-0.95206666 -3.4938943 12.139244
-3.7831101 -0.16122548 9.2928019
-4.4084692 -0.1460871 9.1366529
-4.4503694 -2.8524499 11.198222
-2.5938833 0.81890982 8.409256
-0.54281294 -3.7319696 12.449695
-0.22195548 -2.2152007 10.843029
-2.6701016 0.95411837 8.4957752
-3.2686775 -3.603385 12.289405
-2.2032976 1.0349172 8.2246513
-1.3716968 -3.6627171 12.122164
-4.7121263 -0.58406132 9.6499796
-0.3792851 -3.2897496 11.834743
-2.6014476 0.56025279 8.818985
-1.2999775 1.5376694 7.8674288
-3.4071305 -0.62490392 9.4963264
-0.33073273 1.1118802 7.9638987
0.046253596 1.5431827 7.6021161
-2.3406477 0.44113046 8.8903656
-1.2408664 1.5407994 7.70576
-1.0434378 -2.0591819 10.583655
-2.4115548 0.40253147 8.9239817
-2.0288227 0.49173498 8.6179113
-0.80954087 -2.0857811 10.422916
-4.5680585 -3.6830912 12.118601
-1.2670637 -3.8170607 12.558371
-0.023687756 1.4971778 7.6839604
-1.1982714 -2.1669133 10.232865
-0.70200443 -3.708323 12.365952
-1.3071957 1.5404235 7.8898506
-0.44012982 -3.6705451 12.253322
-1.5061046 0.28172249 8.9566622
-2.5728052 0.55276561 8.6991043
-1.9781364 0.56953025 8.7495193
-3.579668 -3.6200581 12.394382
-1.1670746 -3.6355143 12.426677
-1.0207468 -3.6351466 12.405779
-0.3340553 -3.6721127 12.544568
-1.2510512 -2.2224419 10.275986
-1.9981257 0.56966078 8.5722628
-4.624999 0.19696717 9.0013895
0.36174545 -3.3264487 11.486054
-4.1660948 -3.5248632 12.34414
-4.0239329 -3.4050319 12.257876
-3.5100338 -0.57305086 9.5464516
-2.2953675 -2.62972 11.709355
-4.3628435 -3.2386479 11.864608
-3.8612225 -0.52747792 9.5387115
0.20517381 -3.1959116 11.73052
-2.6840882 0.70405704 8.4783487
0.56741089 -0.14361984 8.2896185
0.039068233 -2.6615291 11.125834
-2.6993976 0.95969594 8.5258341
-2.0911953 -0.16434877 9.3421164
-0.30656257 -3.0515223 11.514739
-3.0846174 -0.34462783 9.3973341
-5.3455901 -3.0502799 11.66702
-0.20476356 -3.1053936 11.813896
0.068291172 -3.0672948 11.680367
-4.3952608 -0.16374663 9.1754761
-2.2391586 -2.8566782 11.84426
0.013862179 -3.002898 11.651371
-5.2426252 -2.8825953 11.327622
-2.3266063 -2.887182 11.868947
-2.6852286 0.83230728 8.4802504
-4.3840203 -0.20786901 9.1965036
-3.7083311 -3.0791614 11.542623
-0.21556562 -2.2355735 10.943784
-0.61847305 -3.8163748 12.424284
-0.52648991 -3.6726031 12.271726
-3.2353899 -3.5397644 12.078627
-3.2368488 2.057785 7.1407809
-1.4038521 -3.6998625 12.234461
-5.3703485 -1.758832 10.266359
-0.33616897 1.1103535 7.8823981
0.52744585 -0.22191773 7.9759531
0.024560027 -3.5002971 11.352645
-4.6509995 -3.7872725 12.444524
-2.7185662 0.88344252 8.6989298
-3.1098742 -0.35723123 9.4473104
-3.1672478 -0.38444713 9.231863
-3.8088381 -0.41927618 9.2922411
-1.5423034 0.27893144 9.0477428
-3.4360583 -0.51289374 9.5501614
-0.45431265 -3.6869152 12.320737
-3.8751848 -0.54121202 9.5842247
-2.0104089 0.57208687 8.5734129
-3.5324106 -0.59364492 9.5952663
-3.6026101 -3.6454625 12.414569
-3.1824768 -0.64190191 9.6682739
-0.23996858 1.704798 7.7536597
-1.0149137 -3.6418483 12.478363
-1.9969866 0.46656504 8.4159441
-0.6244939 -3.5560935 12.310314
-0.24514806 -3.5290701 12.141681
-2.0056801 0.52712852 8.5540409
-4.0366216 -3.394614 12.262986
-2.4248955 0.41735107 8.9613171
-2.7067225 0.83640414 8.586935
-2.2512062 -2.8792527 11.847965
-2.1621394 -2.6872346 11.723318
0.040185586 1.5603065 7.6772194
-1.2440635 1.5267723 7.6802111
-3.8864763 -3.172117 11.80734
-0.024283629 1.508629 7.7441177
-5.1994934 -2.8856411 11.234502
0.055441462 -2.9810064 11.325643
-3.3776417 2.0298605 7.433814
-1.0288855 -2.0583925 10.486959
-3.2666512 -0.6297645 9.599102
-0.63342535 -3.8180418 12.489817
-5.0671759 -2.4317403 11.01516
0.42920434 -3.5172994 12.084356
-0.2085714 -3.3388827 12.028782
-0.47535098 -3.7244596 11.991716
-0.17291342 -3.1310136 11.87628
-1.2333188 -3.7206533 12.24279
-2.0046556 0.61902034 8.5491238
-1.2776674 1.6706072 7.6293426
-2.5757897 0.53503817 8.7101336
-4.4241595 -0.1606309 9.173564
-5.3125982 -3.0491664 11.618639
1.0554901 -1.2319359 9.1215134
-2.3543861 0.45191836 8.8793631
-2.0003314 0.52694637 8.5105591
-0.32831949 -3.0866647 11.728028
-1.9935226 0.58298135 8.4818945
-2.7002194 0.71083659 8.5679455
-0.48311281 -3.7960694 12.742977
0.017514115 1.520779 7.5935011
-3.8871109 -0.42247707 9.208004
-4.3833385 -2.8809032 11.373267
-0.013882564 -2.9797168 11.571832
-0.2154693 1.697101 7.7915401
-3.9904437 -3.327836 12.021083
0.66099906 -0.15632127 8.0362148
-3.4064238 -0.50255656 9.4971189
-3.2224107 -0.39220205 9.4232426
-3.2447436 2.044203 7.2303066
0.3938176 -3.3982198 12.18759
-0.25846651 1.665519 7.5294223
-3.9344683 -3.2360222 11.973256
-4.7373781 -3.538692 12.081162
0.14239594 -3.1649072 11.655614
-0.62103504 -3.4805877 12.104908
-1.3316207 -3.5748706 11.961748
-1.5748843 -0.34021926 8.8335466
-5.2329268 -2.9109356 11.321557
-2.2697308 -2.5157123 11.443447
-3.6941223 -3.7102654 12.655517
-1.2308855 -3.9058201 12.990947
-1.2565997 1.55847 7.7856774
-0.21194439 -3.3190689 11.906119
-5.4153419 -2.2483222 10.925333
-3.1479008 -0.51015043 9.4826708
-4.5712137 0.18797714 8.9223509
-3.8891315 -0.17797926 9.361001
0.45489261 -3.7194889 12.816957
0.062424734 -2.7423317 11.385041
-1.0359048 -2.0780044 10.558379
-3.1383555 -0.65988183 9.5503016
-2.1686702 -2.6524997 11.51721
-2.1624134 1.0698539 8.0572605
-2.0854528 1.2057494 7.9655557
-2.2249346 1.0994096 8.3284054
-3.3106651 2.00507 7.1420631
-0.62871784 -3.3313506 11.497596
-0.42170534 -3.2312877 10.887785
-4.6898456 -3.5059183 11.979776
-3.7570002 -0.53335887 9.3123388
0.16147487 -3.475791 11.998178
-3.9270627 -0.43130443 9.2728252
-3.8086369 -0.41526815 9.2564249
-3.1637201 -0.41510016 9.2151804
-3.037111 -0.34212744 9.1673651
-0.19380124 1.5756197 7.3441553
0.76116663 -0.23049748 8.1303949
-4.6187191 -3.3961449 12.43605
-3.8443506 -3.2487295 11.891397
-3.8446906 -0.22316188 9.1655989
-2.5046639 -3.2750592 12.337422
-0.33091471 -3.3086834 12.439836
0.013224901 1.5076966 7.5652952
-1.276276 1.5629835 7.8474712
-4.3387103 -2.8331039 11.198676
-0.22228153 -3.4927313 12.007778
-1.0270599 -2.0501194 10.396099
-0.85902685 -2.0961001 10.383755
-3.462172 -0.54499644 9.6346731
0.061537832 -2.7396219 11.358285
-2.0129695 0.52762741 8.5661163
-1.168449 -3.6237204 12.330865
-2.6264584 0.66838294 8.3318701
-2.6766386 0.8015455 8.2812986
-2.1106818 1.1750197 8.2778902
0.019193808 -3.6002302 11.529795
-4.5845437 -2.717545 11.595641
-1.2440259 -2.1356192 10.133129
-2.2643628 0.35720515 9.0171137
0.1559425 -3.4179685 11.370092
-1.3831502 -3.7402606 12.497388
-1.1761841 -3.7479866 12.413028
-0.33880782 1.1036868 7.9757586
-3.3397019 2.0918298 7.3866534
-0.22561756 1.7284981 7.9104385
-1.2941594 1.670114 7.6939807
-0.36551338 1.0562758 7.5982018
-2.6597588 0.68524766 8.5040741
-2.070065 0.62353235 8.7789755
-2.3611155 0.46641615 8.9217157
0.056712184 -3.3367057 11.471222
-2.2372196 0.37595254 8.9399786
-4.9995966 -3.7436471 12.825574
-1.2453876 -3.1978383 12.318051
0.72766566 -0.061427839 7.9778728
-3.9413874 -0.19818586 9.4144726
-3.1318488 -0.31658635 9.4300032
-1.6370442 -0.38073194 9.1885481
-4.5087862 -3.2863591 12.013164
-3.9175429 -0.43547872 9.1465969
-0.9120146 -2.3075099 10.510175
-2.5414743 -3.3048387 12.567993
-1.2576292 -2.1207387 10.04534
0.84338659 -0.78974324 8.3643789
-0.75204825 -2.1875691 10.398845
-2.1948414 -2.3887954 10.8552
0.054077275 -2.7799187 11.610103
0.10066197 -3.2248797 10.707697
-1.9366956 0.61763352 8.7479286
-4.4524541 -2.4744053 11.014558
-3.8978722 -0.4350594 9.529192
-1.1016307 -2.0086331 9.9472675
-2.3264239 1.6540858 7.6762505
0.22974057 -3.5766742 11.904657
0.39221913 0.077571034 8.1804199
0.022501718 -3.4118924 11.843446
-2.6796885 0.722121 8.4890308
-3.9773583 -3.3699074 12.365535
-2.7602265 0.86928958 8.4368277
-0.24843146 1.6760621 7.6291757
-2.372546 1.7228347 7.9501948
-0.16025467 1.6232129 7.6042228
-0.11312121 -3.078686 11.648342
-1.2218926 -3.0840895 11.964636
0.19643959 -0.084914967 7.9280891
-0.029174155 1.5237979 7.5762277
0.086108781 -2.665463 11.303665
-2.2243667 0.35213113 9.0271521
-3.8396406 -0.20645437 9.0268955
-0.96390551 -2.131819 10.642111
-0.47604993 -3.1053245 11.645453
-0.044262316 1.4914129 7.3649559
1.0989109 -1.2988745 9.2873163
-2.5420859 0.64516985 8.1672335
-2.078948 0.60223997 8.6004229
-0.57244122 -2.4206681 10.451474
-1.012076 -2.3261807 11.328055
0.51401591 -0.33771396 8.1648159
-0.70959735 -2.1703951 10.333232
-0.080463581 -3.2982104 12.493846
0.46407115 0.17009462 8.2786188
0.995013 -0.71621108 8.4080305
-2.5506508 -1.9602979 9.9759684
-2.6054029 0.88712925 8.5672197
-0.21010795 1.7084461 7.8702779
0.085770525 -2.6040418 11.149251
-2.8994422 1.0157115 8.5614672
-2.348321 -2.6775982 12.004627
0.14354566 -3.0055914 12.411409
-1.2786899 -2.4445066 11.27374
-1.206911 -2.3781626 11.261536
-0.86825687 -2.1249659 10.790832
-2.4217093 -3.064894 12.758096
1.2593296 -1.2425755 9.638032
-1.2936734 -4.1746583 13.732428
-1.5254154 -0.83918947 8.5580502
-0.34936011 0.71858734 7.7236896
-1.4684469 -4.4963956 14.833469
1.0461055 -0.97107571 9.7406721
0.16551279 -3.991477 12.738096
-3.2260668 -0.56748247 8.7822857
-2.5019441 0.65793061 7.5939684
-3.5236106 -0.4284893 8.3673525
-0.081212558 -3.9945641 14.547028
0.60032099 0.24388567 8.9883451
-4.198163 -3.6066084 13.026982
-4.55864 -3.4472849 12.614264
-1.2433701 -4.6104746 15.782844
1.0161755 -0.056285329 9.044611
-4.1103139 0.16358343 7.7048059
-4.1953754 -3.5069394 13.042028
-0.99295706 -0.38222557 7.9109259
0.82980376 -0.17951481 8.7744255
0.87594068 -0.1994435 8.7404261
-6.8549352 -3.1156309 12.360828
0.1017916 -0.40757737 7.9394794
-1.4309034 0.19796453 8.7345581
-0.52325046 -0.0070453421 7.5282822
-1.8692547 -0.34062696 9.0008249
-3.7503095 -0.40458858 8.7991266
0.55078423 0.2656984 9.0164709
-2.4576297 0.56430459 8.1499329
-0.94629467 -0.16051835 7.9943404
-1.4111153 0.2534669 8.869586
-1.8710533 0.5357151 7.846375
-3.60992 -0.27515742 8.5358067
-2.2203667 0.34308639 8.303853
0.38411316 -5.9162874 15.9288
-2.4812071 0.52423674 8.1914835
-5.023982 -4.1607289 13.671116
-1.6024349 -2.6199503 11.750918
-0.12468752 -3.9601917 14.969678
-1.4743187 0.33062467 8.2071505
-1.4900336 0.32761467 9.491354
-1.2636982 1.5785635 7.1148324
-1.3991054 -2.870959 13.001307
-5.2396641 -0.94878107 9.7281609
-1.3057582 -2.6219265 12.123064
-0.29579759 -5.0056386 16.241348
-1.4566352 -4.1124268 13.521043
-0.23445584 -4.4620075 14.377526
0.14702517 -3.9968822 12.760236
1.3961016 -1.3368255 10.403244
-1.2862312 -4.4076848 14.742668
-1.5264934 -0.84620231 8.6227989
0.15615427 -3.952888 12.819397
0.16059542 1.6047794 8.1061449
-4.4107723 -3.8389692 13.815644
-1.4820334 0.34743592 8.9536905
-0.36307681 -4.2382536 14.183399
-1.2092094 -4.235527 14.43996
-0.45579654 -3.7590523 12.680967
-5.4277263 -1.7795748 10.405407
-4.069828 0.16614965 7.5862775
1.0576267 -0.96797287 9.8294916
-2.0848596 0.95447314 7.4354229
1.0036973 -0.064831056 9.0578814
-6.7244244 -3.0396886 12.052836
0.71506917 -0.13858038 9.0988693
-0.27281308 1.634374 7.2667727
-4.3792834 -2.3480682 10.709356
0.41186738 -3.6475284 12.504995
-1.2057652 -2.2601185 10.678605
0.87195963 -0.19025183 8.9995852
0.34054404 -3.9167519 13.643741
-5.1521559 -2.4729733 11.280664
-3.6544924 -0.38000774 8.4557447
0.96774244 -0.67179269 9.2948303
-3.0385306 -0.33670029 8.6493101
-2.5018234 0.65426975 7.5832462
0.48506492 -3.7749677 13.421439
-1.9377247 0.61039072 8.110898
-1.3952979 -2.5166135 11.416757
-1.9336481 0.54818165 8.0487556
-2.964524 -0.32211661 8.8575602
0.092758149 -0.41023248 7.968214
0.20347312 -3.1537809 13.133765
0.54435033 0.23215137 8.7353439
0.18745254 -3.4578722 13.138598
-2.2370217 0.4229795 8.2362652
-0.33972195 1.1249237 7.762352
-3.4019349 -3.8175447 12.965344
-3.2331419 -0.54793221 9.0616369
-2.610436 0.81237316 8.12994
-1.5289778 -0.85589439 8.6744604
-2.4969893 0.64773512 7.619978
1.0908052 -0.97443712 10.062557
-3.0270252 -0.61205256 9.124877
0.38747597 -5.9420948 16.04701
-0.99450165 -0.39291522 7.8954644
-1.8675225 0.53277785 7.7854514
-1.9479921 0.53622299 8.0297117
-2.9297764 1.6847047 6.0264931
0.15087292 -0.12371989 7.8742185
-1.9665225 0.46011984 8.1726913
0.97558367 -0.069251671 8.9442196
-0.20682248 -4.5302501 15.404104
-0.27000484 -5.2011585 17.408302
-2.1917524 0.35411859 8.2228556
-0.15612084 1.7871611 8.1413574
-0.19529575 -4.7078853 15.102974
-1.5321981 0.27936605 8.8728333
-3.0456622 -0.34718093 8.7212315
-2.9464395 -0.32407314 8.7313251
-2.3139205 -2.9996316 12.818356
-4.450562 -2.4404128 10.790619
-1.8804893 0.60249746 7.9077926
0.26719204 -3.8656921 12.922557
-5.1151657 -0.91351157 9.397934
1.3926579 -1.3543583 10.339221
-6.4115233 -2.8528974 11.318302
0.7775892 -0.17016029 8.6038065
-4.1185546 0.16306104 7.7289329
-1.2626257 -4.0788612 13.559043
-0.27970728 1.6240122 7.2398
-1.2507113 -4.4987688 15.324027
-1.0391878 -2.3254967 11.887407
-1.4777021 0.32806727 8.8680696
-0.93185139 -0.16377257 8.0293398
-3.4506056 -3.7954705 13.090314
-2.43415 0.50032037 7.9340167
-1.5147021 0.097324438 8.8229895
-1.4863502 0.14729187 8.8264132
0.14879885 -3.04879 12.675627
-2.117759 0.95489091 7.5511498
-0.39348432 0.3773635 7.8829036
-1.4012296 -2.6310182 11.968606
-1.559575 -0.33013111 8.426631
-4.5056019 -2.915401 11.396888
-1.4038677 0.29285023 9.005476
0.20607823 1.6543081 8.4960032
1.0922023 -0.057768121 9.5340242
-1.9037535 0.57905072 8.2344542
0.24110904 -0.11237185 8.6500654
-2.3265696 0.40238538 8.3254957
-0.39881551 -4.5687971 15.292891
-2.8941932 1.7482265 6.0860677
-2.8090475 1.6082636 5.5530958
-2.4913473 0.65617156 7.5397
-4.4005036 -2.4159048 10.879654
-4.3839512 -3.7625172 13.609232
-5.0863304 -0.90874177 9.3065653
-2.9964724 -0.60428882 8.9293432
-1.5600483 0.28503457 9.1533394
-1.0437598 -2.3033307 11.759716
-4.0257964 -3.334837 12.352897
0.90613019 -0.87793005 9.1884689
-1.11531 -2.1998549 11.049362
0.59045285 -3.9788802 14.112839
-2.6324346 -3.4574931 13.151612
0.81051248 -0.16297579 8.793767
0.41651452 -4.3002925 14.890432
-2.5770278 -1.9195691 9.6424303
1.0468185 -0.78974998 9.2067976
-4.32443 -3.1475282 11.528892
-1.2687644 1.5629191 7.0659046
-1.2370434 -2.311861 11.067906
1.4022551 -1.349033 10.390662
0.61190563 0.23037337 9.1466665
-4.5536275 -2.5260322 11.138486
-3.5739655 -0.24223635 8.4041624
-3.5662072 1.9353471 5.8885913
0.80635506 -0.038211294 8.893712
-3.0143158 -0.3380107 8.5474682
0.19879496 -3.1604226 13.049533
-1.2667972 -4.3389878 14.384175
-0.11708803 -4.5593166 14.839469
-1.5986855 -0.34080878 9.2212238
-2.8628931 1.6973641 5.8862982
0.58162916 -4.7759032 15.87025
-0.84614974 -2.2830806 11.373105
-2.4769559 0.62332064 7.5817885
-2.0284181 0.57134128 8.7612648
0.38373971 -0.19233496 8.1076488
0.81699628 -0.1591675 8.7346821
0.26214546 -0.0078106304 8.3783445
-4.0651584 0.13860801 7.6218729
-4.7856989 -3.5556469 13.001214
0.32212624 -4.1595778 14.323809
0.63491637 -4.0736632 13.941053
-3.0336003 -0.33128065 9.1824436
0.97873586 -0.68954957 9.5246859
0.91224593 -4.6553655 16.415716
-2.9389076 -0.57286775 8.6679325
0.92322129 -0.91093981 9.3213291
-0.11710165 -4.6477909 15.15112
-1.1195315 -2.1765349 10.916366
2.3218133 -1.296863 10.609345
-0.29340073 1.5276902 6.8448224
-5.1210823 -0.91992509 9.4078999
-0.34552938 1.1071132 7.8392448
-0.97575611 -0.10098083 8.2630749
-1.2453759 1.4731026 7.2269406
-4.4243593 -2.4415605 10.960751
-1.2478918 -2.2159736 10.549436
-1.2524606 -3.2827473 12.551372
-0.78608072 -0.70420086 8.9072046
1.103036 -0.90600181 9.6352177
-1.9326781 0.56028605 7.6684752
0.98894292 -0.060211621 9.2540283
-3.9934833 0.11989687 7.413054
0.41829905 -0.19379325 8.3611059
-5.0714617 -3.8346257 13.945387
-2.8969104 -0.28327122 8.4049397
-2.6036758 0.80221903 7.8519816
-2.1321604 1.430706 6.5476084
1.0608511 -0.97498572 10.155097
2.16785 -1.2221484 10.128502
0.235218 -3.6730697 12.204561
-0.96157545 -2.3993492 11.961105
-1.1064906 -2.1220653 10.485402
-0.71940565 -2.557148 12.206466
1.0583844 -4.9554734 17.286028
-1.2442549 -3.1900239 12.176208
-3.1562428 -0.39760834 9.1362686
-2.3661048 0.81918573 7.2479477
-1.5813655 -0.36445463 8.5328474
0.28123841 -4.1070271 14.044647
-2.1774333 1.0946085 8.0150013
-1.1898313 -3.2815337 12.047318
-0.047727671 -3.4197738 12.980289
-2.5710261 -1.9074796 9.6989412
-1.2514859 -2.1166205 10.05104
-0.63423145 -3.7414594 13.343661
2.3081791 -1.4808893 11.013014
-2.9397006 1.6052119 6.2598324
0.54252768 0.10505576 9.1012983
-5.1474795 -3.8492587 13.897244
0.87328601 -0.078336731 8.8569221
0.31084087 -3.860158 12.73852
-2.2298717 0.44631925 8.0975933
0.19134329 -0.071064807 7.2832317
0.49691352 -0.16719443 8.9236097
-2.4301937 0.62670738 7.2179604
-0.97003579 -2.3831606 11.825437
0.094977915 -0.2698631 7.9244132
-2.5507224 -2.0247097 10.402463
0.15304543 -0.35875967 7.679709
-1.2890059 -2.290441 10.95783
-2.5131361 0.76408607 7.242281
-0.036297709 1.5224959 7.4611001
-1.5191932 -0.81620991 8.7206411
-1.0219524 -0.41888687 8.6790342
-1.591344 -0.35355192 8.5759544
2.0842681 -1.1898977 9.8771162
0.30769047 -3.2458754 13.773137
-2.1964071 1.1345284 8.1477413
-2.4623866 0.85723776 7.8913994
-3.098325 1.551471 6.5347657
-3.9866259 -3.3679924 12.367369
0.88875341 -0.23879156 8.7173538
0.51320821 -6.1810961 21.45767
-0.82955194 -0.62668711 8.4898949
-2.8560829 -0.21739548 8.0828371
0.076045804 -0.43645015 8.4886198
0.58568794 -0.33934632 8.8579073
0.030999165 -0.21211794 7.4747472
0.56738085 -0.19565076 9.0476837
1.1458346 -1.3363773 9.3237066
-1.4576921 -0.72736931 8.2699375
1.3221564 -1.029671 10.361071
-0.98805046 0.017000036 7.0606971
-2.6004162 0.76790732 7.6674967
0.42828977 -3.5072391 14.953108
0.27130297 -0.047925882 9.2554722
-2.5744195 -1.9859105 10.162863
-0.99872732 -2.2199361 10.780256
-0.68241888 -2.5483675 12.046701
0.5159384 0.10300129 8.6758394
0.78880906 -0.038891934 8.4819698
1.7593596 -0.98787421 8.5828476
-1.9414972 0.77949691 7.2011085
4.1731386 -2.3926797 17.576502
-2.8300602 1.0862213 6.9803958
-2.190027 1.519682 7.1209159
-0.28998694 1.5423146 6.9488144
-1.9802036 0.62353927 9.5608988
-2.3473532 0.43149656 9.2844152
-0.87077796 -2.1176534 10.784964
-2.656456 0.72406393 8.704052
0.97460288 -0.25118324 10.077348
-1.2769452 -2.4267521 11.289642
-1.5795119 -2.4838367 11.29102
1.2408725 -1.0219324 10.530978
-3.2039475 -0.70664996 10.312425
-2.4223747 0.42909127 9.6288376
-0.95013517 -0.39705235 8.6319609
-5.2855392 -2.9310699 11.430984
0.25361058 -0.44008645 8.7559566
0.93420494 -0.41166797 9.7385406
-1.4824524 0.15718825 9.4512835
-4.4581442 0.17315875 8.7477179
-1.5752538 -0.38759756 9.7789974
-0.30881166 -3.9166551 13.313951
-5.2880321 -1.6833564 10.002177
-0.2265047 0.93514252 8.4829683
0.3123914 1.7159884 9.096921
-1.2700598 1.6266584 8.3520021
-0.49507955 -3.5288939 12.810877
-4.0205412 -3.3535392 12.433813
1.1146857 -0.24356195 9.5360842
-1.4158585 0.27155927 9.2070084
0.044157378 -1.2038482 9.8580017
-4.568336 -3.0109615 11.539612
1.2149206 -0.72588354 10.1927
1.2118781 -1.1905488 9.6686192
-1.4769372 0.33491606 9.8210478
-2.0164135 0.5241093 9.4438143
-0.41921249 -3.972225 13.331875
-3.6581478 -3.6378064 12.546215
-2.3823276 -2.9473391 12.26549
1.4770768 -0.84593409 9.7699165
-2.2378845 -2.7600048 11.680783
-1.3273075 -2.5162122 11.225334
-4.5665665 -2.4726977 11.401376
-2.6774457 0.86310863 8.7906294
0.11106011 -2.9418256 12.157593
-4.4821372 0.15156077 8.8158026
-2.599035 0.61387426 9.2863474
-0.26034838 0.41900593 8.7008619
-2.3156166 0.22446392 9.0280514
-1.4967294 0.15076014 9.1483603
0.90317506 0.008280131 8.971509
2.0420928 -1.2355788 9.9495764
-0.24634315 0.91894883 8.3837414
-0.53051603 -3.4692578 12.288675
-2.7154827 0.89465415 9.1336737
-2.6461592 0.71276522 8.5834627
1.2052951 -1.0021579 10.414147
-3.6299355 -3.5670877 12.307154
-1.9366478 0.57559067 8.7363815
-1.2943547 -3.9652979 13.302743
-0.58615232 -3.4606836 11.586596
-4.4638786 0.15397869 8.7513552
-1.2313648 -3.679426 12.495626
-0.46350732 -3.5231335 12.031524
-0.24775213 -4.1447935 14.12393
0.3541109 -3.7652724 12.839958
-5.2855401 -2.931071 11.430988
-4.5247116 -2.9559302 11.326109
-1.0299652 -3.3060646 11.699629
0.18430375 -3.5842593 12.447202
0.19447801 -0.20167103 8.4396887
-1.4007701 0.28490487 9.3006477
-0.24103218 1.2108064 8.6840906
0.26142886 -3.5963104 12.790825
-1.195533 -2.3714175 11.246299
-4.416945 -2.9454384 11.678333
1.1358783 -0.71159536 9.9673023
-0.3519811 -3.6684265 13.444347
-0.12636358 1.8273216 8.347908
-3.0593779 -0.13569026 9.3610229
-1.6025918 -2.6370523 11.935686
0.45726311 0.22219132 8.7183132
-1.4604559 -2.6970844 11.780619
-0.32198402 -3.2821374 12.486136
-3.0958481 -0.36780626 9.6248941
0.012295352 -2.7658176 11.489158
-0.95631176 -0.39792731 8.8126192
0.23329036 1.6681715 8.5619745
-4.6480999 -2.5537164 11.699973
-2.4073217 -2.978209 12.38389
-2.2882953 -2.918308 12.429953
0.81365001 -0.65435576 9.8503599
-2.3361409 1.6669446 8.0529079
-0.39643115 0.40576458 7.8230066
-1.4896039 0.34399888 9.3298798
-3.2567542 1.8754182 7.6128311
-2.6238923 1.1506876 8.2066126
-1.0307977 -2.7039886 11.659167
1.1803888 -0.26091066 9.7719584
-1.5799687 -0.3960101 9.5949106
0.23116668 -3.5779536 12.078315
-3.1124299 1.9532807 7.0607886
-3.3197498 2.0529759 7.6621881
-0.83974618 -2.3126841 11.641787
1.0468807 -0.93227357 9.8390188
-1.2718647 1.7543581 8.2036982
-3.5096209 -0.56084442 10.110182
-3.8720942 -0.4489342 9.7226467
0.30489025 -0.6456936 9.7467937
-1.3999062 -2.542315 11.529144
-0.94199693 -0.43140557 8.8755045
-1.4718906 -2.5840604 11.351424
0.15343529 -0.19641219 8.2491732
0.53197759 -0.22257531 9.0334301
0.25080353 -0.11475409 8.4968843
0.66614509 -0.12474685 8.8807898
0.3088229 0.17956147 8.467412
0.49361876 0.23136824 9.0174885
-2.6759491 0.85867643 8.6191483
-1.9409907 0.58513385 9.0093784
-2.6778278 0.72782904 8.9254513
-4.0218945 -3.2636299 12.170757
-1.2805284 1.6046758 8.4861774
-0.39009324 -3.7897995 12.921617
-1.0705236 0.4855561 9.2282152
0.18145549 1.6706167 8.0849543
-2.0608718 0.50774127 9.5228863
-0.20603356 0.95291334 8.7511663
0.49832138 0.24670084 8.5077486
-1.2147615 -3.4054983 12.681068
-1.4891247 0.3360509 9.6037016
-2.6394746 1.1536992 8.3345022
-1.5210079 0.097818717 9.1016493
-0.30638096 -3.2549672 12.296141
-2.7274878 1.1738123 8.2894669
-3.2412233 1.8473704 7.5520229
-4.2065263 -3.5359406 12.832704
1.1704652 -1.1528894 10.818001
-0.17408623 1.7813017 8.0857935
-2.398617 -2.8826456 11.975523
-3.2942362 1.7668862 7.581883
-0.27276194 1.1899017 8.5212536
-3.8353374 -0.54335988 9.6598969
0.14294848 1.5989217 8.1512556
-3.6381648 -3.5714874 12.282928
0.38477671 -0.66075915 9.5408258
-1.6274002 -2.818013 12.380839
-2.3802891 1.7379464 8.4639616
-1.2323068 1.6216131 8.1831255
-3.7730389 -0.32251239 9.2381954
0.98752481 -0.66229635 9.4197111
-1.6039829 -2.5372984 11.473883
0.98126322 -0.21821432 8.9764662
0.19208555 0.10761027 8.3996181
0.014292433 -1.0965492 9.2878227
1.287358 -1.2735735 9.9245071
-2.6447089 0.84752589 8.304265
0.053846028 1.5840415 7.90031
-0.73532999 -2.4141498 11.633286
-3.9219186 -0.40659678 9.3839903
-3.8219893 -0.43390608 9.4972649
-1.2780727 -2.534003 11.621884
0.23544367 -0.61757064 9.4541607
-1.4877439 -2.6264982 11.520861
-0.98398906 -0.37026268 8.3324156
0.13796738 -0.40433273 8.2420759
-0.3909651 -3.0788803 11.673882
0.31436872 0.17374271 8.4190655
-3.2385781 2.0018339 7.3300309
-0.4972592 -3.1203654 11.453915
0.90356988 -0.027550869 9.2885113
0.38510582 -0.65801078 9.5419483
0.38439023 -0.026613122 9.0167284
1.1580112 -0.72343665 10.197807
-1.5042214 0.11385622 9.0717888
-0.97120881 0.041473687 8.8575211
-0.15859075 1.7979749 8.1673565
-4.5561008 -2.5454023 11.459228
-1.2570664 1.7754298 8.2713614
-4.5832553 -2.5160639 11.26037
-0.38884211 -4.1530471 13.920187
-3.2885578 1.7709389 7.5688996
-2.2391496 1.0837674 8.7301188
-4.6896811 -3.0681612 11.839091
0.44314834 0.23224469 8.2903423
-3.1700037 1.7882415 7.1957569
-2.5681982 0.91177142 8.40446
-0.65002948 -3.322866 11.16976
-5.7553105 -3.2751627 12.866777
-2.3309302 -2.9807034 12.353875
-0.27328235 1.1731024 8.4316273
-2.3412638 1.6809771 8.1295319
-0.22749472 0.94851178 8.6565847
-1.0695906 0.4612999 9.1318445
-2.6238427 1.1597682 8.1143656
-1.3021548 -3.1757245 12.136189
0.86957109 -0.61478424 9.3926105
2.0130477 -1.6641357 12.459383
-3.1953819 1.7964761 7.3400469
-3.364939 1.8104568 7.9133081
0.38228562 1.8196248 8.9803896
-1.326829 1.8230791 8.6549664
-3.7758441 -0.57140648 9.062933
-1.2299409 1.6540616 8.3860998
-2.353375 1.7146522 8.4251089
-4.0544367 -0.45268118 9.8904896
0.47882465 -0.71678692 9.9276209
0.84306508 -0.72910392 10.030733
-4.2752657 -3.7800515 13.900774
0.17644568 -0.59634519 9.0843916
1.045399 -0.69292706 9.7771072
-0.3158741 1.1466141 8.1719055
0.41563535 -3.6001184 12.383724
-2.6667354 1.1561798 8.4160452
0.37150967 -0.43919989 9.0388174
-3.0368097 -0.1835607 9.2903023
-2.7223251 0.85432529 8.9090338
0.63607836 -0.25551322 8.7758265
-2.7522328 0.73796588 9.5917072
-1.9345887 0.63512975 9.8544149
-1.2549151 -3.3200376 12.687531
-2.0331128 0.60331374 8.9448748
-1.1079464 0.42915887 8.6345959
-2.6298635 0.53330332 9.4755516
-4.72928 -2.6229541 11.762229
-4.4038262 -2.4542856 10.908092
0.46009138 0.21156712 8.7482853
0.90894616 -0.17052896 10.025252
-1.4928845 0.31321159 9.4802046
0.20663734 0.16344103 7.8109641
-1.5738738 0.27441773 9.433444
-1.0018114 0.029863896 8.1302538
0.2696813 0.061952438 8.7805738
-1.3870999 -2.6285098 11.855579
-0.8897168 -2.5639141 11.692743
0.86221826 -0.043500159 8.5728512
-1.5006226 0.096072361 9.1714535
-2.5250978 0.90067941 8.29807
0.70577031 0.21137506 9.4266424
-1.4996881 0.3253572 8.9993153
-0.79621738 -0.63079959 8.5791998
-2.5720534 0.50339741 8.9572029
-0.056677952 -3.8172171 11.012881
1.2771841 -1.007508 7.9463406
0.28408197 1.7939178 8.5555134
0.61949778 -0.5015192 10.173192
-4.7192001 -3.450377 12.553222
-3.2144454 1.6790037 7.2245574
-1.2862233 1.7002976 7.8702617
-3.9012432 -3.2464824 11.910919
-1.2495102 1.6867782 8.414444
0.33033952 -3.4242609 11.951261
-2.3409278 1.7233939 8.3725386
-0.98876065 0.025995644 8.4519968
-1.5077651 0.099113338 8.7406454
-0.78908157 -2.2308128 10.753175
0.82049632 -0.01810416 8.5168266
0.11635526 0.16096325 7.3282237
-1.5918701 0.25770134 8.8500338
-3.1400039 -0.32938173 9.8958511
-2.1669898 1.0971719 7.9645963
0.56814098 -0.24336368 8.632637
-1.2388722 -2.43084 10.732764
0.91229516 -0.21487649 8.7423334
-1.1504871 0.41421023 8.0469446
1.4170789 -1.3592825 11.72695
0.070886545 -4.5760765 12.404751
-1.6524287 0.24067412 10.009896
-0.81108332 -0.61039239 8.6041508
1.1979973 -0.9217537 9.8127747
-4.7858186 -3.470226 12.525675
-0.83127028 -0.36135674 8.9649134
0.21807066 -4.296586 14.870762
-1.2868876 -2.0930679 10.138929
-1.2186855 -2.6407135 11.656294
-1.6581471 -0.053920452 9.6478415
1.9142184 -1.6700902 12.185396
-1.0369384 -2.029053 10.084105
0.65107757 0.10200185 9.6217728
-1.5127392 0.10698913 8.4991655
0.84433562 -0.05989141 8.700613
-0.70966655 -2.448364 11.670923
0.18430027 -0.28011405 8.399478
-3.8975379 -0.21523108 9.3209143
0.87570131 -0.78191316 10.296973
0.13683251 -0.60577399 9.1950989
-0.99837768 -0.41428751 8.9892178
-1.6081994 -0.3849186 9.2401915
-2.353168 1.7499043 8.560482
-1.5053884 0.31830814 8.7188177
-3.0504949 1.2150683 8.069025
2.1156137 -1.3229438 10.013464
-0.43103629 -0.63735437 8.1912041
-2.1358576 0.30648002 9.1745338
0.28430462 -0.019655935 9.2413797
-0.90690088 -0.010644314 8.6406202
0.48940933 -0.14044014 8.5778294
-1.1472093 -2.6265521 11.643442
0.54962885 -0.73027569 10.107798
-2.8707056 0.89988941 9.4556465
0.86162496 -0.39525247 10.093349
0.1644835 -0.25037757 8.2195616
-3.3978379 -0.3443048 11.299274
1.5980588 -1.5455521 11.072058
-0.71328503 -2.4683471 11.628676
0.40101549 -3.3908341 11.877915
-0.65876222 -0.84490591 9.068634
-0.10296144 -0.68609118 8.6512871
0.72561163 -0.7585029 9.5161247
0.37696689 -0.75310105 10.442141
2.3774467 -1.2112885 10.394038
-0.27156803 -0.70142883 8.8700056
-1.6747466 0.1633278 9.1105728
-2.2318785 1.1865934 8.6660442
-1.0769211 -2.738374 11.37033
-1.4778515 0.09325923 9.0270338
-1.1769092 -2.9170694 11.092196
1.1538531 -0.90784061 9.5379295
-0.080176868 -3.4365158 13.201397
-0.2213017 -3.6268787 12.837268
1.4956681 -1.1291467 8.8044024
0.54324949 0.083390199 8.8025942
1.4802866 -0.84565163 10.213158
-0.32961929 1.1210515 8.1770668
-0.61061198 0.077159181 3.8298762
-0.28833365 0.024035467 5.1054621
-0.36631873 1.2597014 5.7151103
3.9396195 -1.2559459 6.346076
1.4940578 -0.68451142 3.5512431
1.8448017 -0.92463988 3.9638925
0.32797852 -0.35581726 1.9918666
-0.20855284 0.23275399 5.5543804
-0.43699002 0.05301274 5.4966278
-0.23977768 1.415194 6.6641703
0.73714387 1.8610288 15.183795
0.945665 0.10837966 10.852185
-3.8294723 0.62086844 -4.4846554
0.28489324 -0.082256064 7.7234063
0.21778451 -0.12224406 6.3508444
0.51949686 0.19084287 8.4462538
-2.1007755 0.40613067 -1.6058128
2.7823257 -0.30792627 2.8113236
0.047294751 1.5900992 7.8610678
0.47297952 0.020357624 6.9650064
2.4790566 -0.98403364 5.0022101
1.4509791 -1.0451455 3.110076
0.60088158 -0.6457389 5.8600063
1.4571285 -1.1077757 3.3416133
1.5271388 -1.0688038 3.2176056
2.4503438 -0.96089518 4.853487
2.0802243 -0.7876749 3.9773366
3.0472445 -1.310492 8.4731874
2.1305366 -0.99836469 6.6396012
1.9314485 -1.102795 3.9647906
-0.064797446 -0.098923951 6.3762593
1.7184483 -1.2254944 3.6001866
0.69294465 -0.68483269 6.1181145
0.40570617 -0.81966716 6.8615308
2.4414687 -1.1042836 7.2151189
3.8194675 -1.5734351 9.955946
2.0589144 -0.87830746 4.3125577
-0.50493658 -1.0487911 7.1254869
0.11519506 -0.013949789 6.6936564
0.4170928 -0.56579149 5.3195395
1.3543233 -1.0134513 7.7906461
0.23035547 -0.74201053 6.1713581
1.4627836 -1.1139451 3.2495527
2.0028057 -0.94502723 6.3537869
0.46641698 -0.36207449 9.6375942
1.9014277 -1.2772826 9.5319834
-0.11531388 -0.59855551 4.97576
2.1151013 -0.81906754 4.0027328
-0.12956581 1.4019002 6.6928849
2.5374143 -1.142328 7.3261704
0.29475918 0.2244948 7.4749188
3.0361922 -0.63012815 4.5099277
1.2996815 -1.0550712 3.0149884
-0.52892035 -2.1277122 8.8380947
2.073643 -0.81318408 3.9918869
0.41824171 -0.66181511 5.6498046
0.042096667 -1.2524669 9.5817471
-0.1513674 -0.5862779 4.8316913
3.1457682 -0.64078975 4.6422272
1.7693697 -0.87479407 5.8651743
2.6937435 -0.49137735 4.1905742
0.97871208 -0.87905008 6.8376942
1.5242115 -1.1538638 3.309324
1.441612 -0.68499804 3.5279665
2.3460059 -0.50391227 6.6733055
0.38743436 1.2198726 12.745272
0.46929196 -0.71023214 6.1808681
0.59622484 -0.72917622 5.9845676
0.23422307 -0.79492646 6.2684054
2.8078852 -0.50613427 4.3297663
-0.17606099 0.010286381 5.8143597
-0.17749967 0.078132607 5.2130461
-0.020945899 0.012298747 7.6456528
1.7622708 -0.71288311 3.5659692
2.5749912 -1.0533801 5.1828451
2.2229984 -1.0077971 6.6856914
2.0477734 -0.9510749 4.1273265
2.0437579 -1.1378416 4.1537752
-0.39831936 -0.85398 7.0150418
0.15628569 0.33965898 7.8632951
1.4908735 -0.51566178 5.1921401
0.27224264 -0.63702095 7.5784445
0.082263857 -0.21336806 7.4191451
2.1489966 -0.35130927 6.5188208
2.6878176 -0.54967594 7.3549309
0.47474724 -0.73089367 7.3318734
0.87865376 -0.86310387 6.9333849
-0.14224556 -0.5971356 4.8441691
1.6577432 -0.80301034 3.5805953
2.5420718 -1.0757773 5.1327558
1.5845311 -0.67126822 3.3185761
1.6137366 -0.78073645 5.4230466
2.3553059 -0.40871093 3.7481036
0.33304331 -0.46111444 4.9087448
1.733868 -1.0041662 3.7126613
0.49125195 0.32485527 9.3115606
-1.8462669 0.38578659 -1.3453573
-2.0050163 0.36568999 -1.4357036
7.4713645 -2.6504648 11.909983
10.999842 -3.655329 16.729773
-0.15751383 0.1125039 4.7167721
0.57626581 0.54335934 5.3655381
9.0000134 -3.2981994 13.45415
-15.299294 2.482703 -13.014172
10.049326 -3.2210388 14.664907
1.2867166 -0.71536058 4.8946209
10.709053 -3.6907954 16.813797
3.2025375 -1.4115053 5.8563662
-0.050210848 0.028367661 2.1459053
-0.49290329 0.25944042 4.8104367
10.900065 -3.7587585 17.109961
-0.10776787 0.28754058 6.3882518
6.7998137 -2.5488918 10.498481
13.108224 -4.7900734 19.877975
-6.3440223 1.8443664 -7.4445596
1.6027151 -0.82567483 5.4828973
-0.47572717 0.31953573 4.8722301
-0.035182614 0.24352616 6.124474
6.7997212 -2.5488605 10.498354
0.71470374 -0.1275164 3.5915353
1.3770337 -0.75296903 5.013237
-5.1939559 0.77397382 -4.6360888
-6.3581581 0.96376133 -5.8605385
7.7996001 -2.5301583 12.448562
0.045484848 0.17803653 7.0250015
-5.6475286 1.5165336 -6.2985229
2.0322685 -1.1422313 4.111907
5.3293142 -2.1271031 8.8909626
-7.494803 1.0873408 -7.0026979
0.45039725 -0.1713594 3.0531025
-1.6077492 0.30095914 -0.78135866
-4.6402321 1.2053584 -4.9531064
-3.937438 1.0623804 -4.2630811
7.9056697 -0.90177453 8.681736
15.784768 -1.6717842 16.219351
0.32711762 -0.056173857 2.8873267
0.59209698 0.49643695 5.4017034
8.7508135 -2.3969114 6.9687428
-12.497728 3.5571275 -15.166744
10.167674 -3.5578818 16.042439
3.9194613 -0.70976019 9.7833157
-6.5524173 1.281556 -6.8424048
0.82770926 -0.16067676 3.8170791
5.8480172 -0.61211288 6.5462332
-4.5227518 0.72795516 -4.1592565
-13.188944 1.8289411 -12.244268
-5.0405669 0.90344286 -4.7243199
-2.0146246 0.37917972 -1.3847395
6.6387925 -2.5235262 10.355781
-2.0146878 0.37922031 -1.3848741
12.111635 -4.0172935 18.295572
-2.0149183 0.37936801 -1.3853612
-14.360522 3.3373425 -11.172647
-7.9461102 1.6636118 -8.3600521
-14.781978 3.420187 -11.505144
-12.223351 2.6458554 -9.5120106
-12.356353 3.3602514 -9.3555651
-12.295498 2.665204 -9.5540094
6.1885366 -2.036665 10.105356
0.98850131 -0.1666472 4.1198983
1.421445 -0.30443329 4.8663759
9.5736094 -3.7124691 14.454919
10.420337 -2.401387 21.510784
-15.601241 3.5469418 -12.125182
-12.894677 3.5249979 -9.7774496
2.3392084 -0.42630365 6.6975694
0.59218836 -0.15111004 3.2729998
-10.986267 3.7107038 -13.833549
8.1088676 -2.1820126 17.179714
-9.005784 1.3238088 -9.1543474
15.994864 -2.639286 14.26545
2.5368707 -0.5277983 4.0758929
1.6653939 -0.33309507 3.0060513
3.1822774 -0.68142438 4.6134796
1.2494323 -0.15452752 2.4651463
10.67195 -2.2297971 14.65989
13.339931 -3.3877242 10.80501
9.864027 -2.4681549 7.5779271
7.2432051 -1.5325327 9.7810421
-4.8202095 0.98630863 -4.815815
11.959702 -1.3677282 13.479438
16.684896 -2.874438 14.979415
9.3602829 -1.804324 7.8791966
10.050622 -1.658381 11.461664
10.398785 -2.4529884 7.6345882
8.9398899 -1.1641489 8.2047768
16.504185 -2.6819417 14.825859
11.702815 -1.3812857 12.404458
13.705998 -2.7902675 11.47156
12.633112 -2.9727945 9.2109966
-7.9653649 1.7248774 -5.8781319
5.4159265 -0.79593229 5.0023489
8.7252598 -1.3827397 8.0266647
-6.5769477 1.046437 -4.8917432
-9.7281952 2.1185799 -7.1647787
6.7477345 -1.0434254 6.1889672
6.1141219 -0.78978854 5.710886
6.3028369 -0.88734788 5.7612
6.9205675 -1.0759403 6.342741
2.7237201 -0.38609242 2.6492543
4.5219302 -0.76347512 10.940984
5.6401849 -0.98370332 13.043633
10.859381 -2.6104653 8.0737581
-6.028183 0.97853225 -4.4507327
3.0026786 -0.51432747 2.2958498
2.632268 -0.37522933 4.0302377
1.9507074 -0.25444067 6.3411908
7.322659 -1.3875688 9.6024971
3.6908753 -0.54547077 9.843132
-3.1576936 0.61617434 -2.4211996
-2.3860512 0.54660821 -1.8145846
9.9991026 -2.6441834 8.0989695
-2.3124943 0.54708868 -1.7652979
-2.3126504 0.54712862 -1.765426
10.62676 -2.8028114 8.6257172
-2.3163369 0.5474574 -1.7710645
10.608818 -2.8069146 8.5967884
1.0880128 -0.53336459 2.6170692
1.5686978 -0.34012869 2.9145648
-0.19743536 0.056253873 2.1551013
1.6895895 -0.71476394 3.3662443
-0.20093545 0.10193795 2.2782457
-0.24029256 -0.0071669994 2.0246367
1.2873 -0.69351798 3.3502579
1.020159 -0.48273972 2.5438254
0.92604345 -0.45760331 2.3870425
0.53174561 -0.41755238 2.1733856
0.98563445 -0.26290512 4.5116119
0.29305184 -0.33624643 1.8659377
-2.6276739 0.37433341 -2.0359066
-2.6187413 0.3585701 -1.9261061
-0.46996543 0.41669357 6.1252441
-0.45344913 0.39338857 6.1472139
-0.48559088 0.42647991 6.0979719
0.030087478 1.19621 7.7263656
-1.3366121 1.7133776 5.4885569
27.705999 -3.1961253 21.452549
2.0996451 -4.5907903 5.8726435
3.7969501 -6.3417611 8.8665113
6.1240511 -6.917685 8.3677979
3.2465656 -5.3469744 6.6639132
27.666782 -3.2026997 21.416918
27.09337 -3.2836423 20.966227
11.258563 -6.4838409 11.52141
4.5494008 -6.723711 8.7275543
14.470079 -6.3425641 12.529204
27.175497 -3.3053365 21.039112
4.679348 -6.8304572 8.5521154
13.89992 -6.3850794 12.202376
27.4268 -3.2448912 21.159943
27.109118 -3.2898209 20.876451
8.3750896 -6.4097776 9.5615892
26.504698 -3.4136271 20.372225
5.6607485 -6.012713 7.8203058
13.623489 -6.4839187 11.992095
17.135452 -5.9579482 14.399061
-0.14756846 0.41901833 5.6650243
0.62292433 0.44361839 8.6027317
-0.13997437 0.43349707 5.6490927
0.81939685 0.46952862 9.4553862
-0.67845684 0.38579074 3.5206625
-0.16684406 0.3647961 5.6465683
-0.13887697 0.37087959 5.5786967
0.79968506 0.42289504 9.5021992
0.8825742 0.41370875 9.6293144
0.853782 0.48840648 9.8453341
-0.72576994 0.5212245 2.200515
-0.77550328 0.30108795 2.5524888
-0.79218853 0.38172147 1.9831098
-0.63884896 0.05326122 3.5412564
0.30917764 -2.6553302 9.0744562
0.32160255 -2.6623957 9.0516729
-1.9956459 -2.6105103 11.172363
0.045338843 -2.694191 9.2947855
0.26583588 -2.6474893 9.1242104
-1.6148281 -2.6724072 10.814636
-1.945084 -2.6136727 11.130864
-1.3786975 -2.6186676 10.591379
-1.7874542 -2.6403387 11.03256
-1.775913 -2.6526074 11.006955
0.56147629 -2.8863242 8.8381987
0.16307481 -2.8395474 9.2202559
7.0109529 -0.93631881 9.684782
2.4473813 0.16348639 8.0938311
7.0110765 -0.93955797 9.6857586
7.0730739 -0.97087473 9.7118797
4.1525207 -0.30398408 8.5315094
2.9541814 -0.087666608 8.204772
2.3249068 -0.011068139 8.0618048
4.2912774 -0.33563077 8.5587282
7.0924516 -0.95247668 9.7349958
1.1533068 0.48262045 7.7890177
7.1447682 -0.98868322 9.7232695
4.3076363 -0.34547406 8.5796356
7.4798722 -0.94239229 9.9262018
7.2239695 -1.0055816 9.7993898
3.8915181 -0.18721923 8.4298811
7.2398171 -0.99874938 9.8470011
0.99204731 0.67729175 7.7974415
-5.1705737 -4.7910452 9.8488693
-4.7504706 -5.770925 9.483304
-5.3443351 -4.8122225 9.6434603
-5.0788102 -4.8705735 10.086372
-2.5469267 0.57539028 -2.1368086
-2.5332198 0.54071802 -2.1076915
7.1231351 -1.0740073 9.5700855
6.8393993 -1.0723401 9.2946482
6.9694281 -1.1959376 9.4154329
7.2173109 -2.2066469 9.3597784
-2.5899739 0.5769074 -2.1907411
6.8261852 -1.1526792 9.2206211
6.6337547 -1.1115919 8.9989357
-2.6475441 0.58093351 -2.261338
6.7691169 -1.1190132 9.1827087
-2.6784678 0.59933853 -2.3000612
6.3290224 -1.056057 8.6864071
10.576084 -1.7669905 13.605382
10.203006 -1.8192998 13.196801
6.667151 -1.110094 9.0932226
7.2056832 -1.047276 9.5007248
-2.7271259 0.59760624 -2.3416729
5.4579716 -1.333254 6.867547
7.0523305 -0.92958397 9.2894802
18.012432 -2.6675432 30.63015
19.079296 -2.9212129 30.022514
17.978207 -2.664181 30.552351
19.148983 -2.92133 30.17745
15.099849 -2.4768696 34.909206
19.241915 -2.7701781 29.865694
17.892437 -2.9663315 30.479565
19.107901 -2.9064155 30.12101
19.228117 -2.7877746 29.766962
17.926197 -2.6717715 30.475887
17.843683 -2.96573 30.352636
14.637514 -2.3224893 35.760414
16.279905 -2.53702 33.73547
17.84807 -2.9672019 30.2976
14.622869 -2.3165278 35.718056
16.109903 -2.5317769 33.484375
17.944448 -2.9511485 30.400524
14.929545 -2.3023741 35.237167
17.998947 -2.9046755 30.443295
18.489544 -2.9845467 29.35495
18.980946 -2.9639695 29.774441
17.846771 -2.8883941 30.048141
15.060127 -0.32426554 25.810949
14.970694 -0.36290699 25.715611
10.023348 -1.6290747 17.687777
-2.8852429 -7.8852081 7.0777936
9.4049931 -2.0110552 7.5735326
9.4055061 -2.0169981 7.5643816
-2.8456118 -7.8938942 7.086071
-2.8251605 -7.6228638 7.0629344
9.4055061 -2.0169981 7.5643816
-2.7846453 -7.6111836 7.0791531
-2.8061144 -7.8342218 7.1016245
9.3979292 -1.9978795 7.5563693
-2.7790971 -7.823133 7.0828624
-2.8053246 -7.7151656 7.0658064
9.4011545 -2.0172088 7.5639095
9.419714 -1.9613649 7.5008445
10.132298 -2.4610579 16.248592
11.835949 -0.40683031 17.466898
11.894269 -0.33411452 17.556208
13.427082 -1.8397814 25.463713
13.598233 -1.8400952 25.870907
13.764688 -1.8619069 26.164591
13.873703 -1.846696 26.376286
17.90181 -2.4788885 30.535933
17.646132 -2.5470247 30.48093
18.14082 -2.5421298 31.083111
19.603989 -2.9834878 30.399961
17.650833 -2.4855258 30.089848
17.972893 -2.4649589 30.672052
17.725121 -2.5337684 30.719919
17.652418 -2.4938369 30.097841
17.615183 -2.4418447 29.992374
16.436745 -2.3798144 27.733242
18.005463 -2.5214262 31.42164
18.109087 -2.4560599 30.937523
-1.5726372 0.44808426 -0.2834678
-2.2574289 0.48715097 -1.6563751
-2.2504306 0.49080822 -1.6704493
-1.5122021 0.46983999 -0.17201465
-2.3385715 0.48356366 -1.784958
-2.3544021 0.47363091 -1.8390418
-1.4881799 0.42322406 -0.13440557
-2.3236651 0.45602369 -1.7943342
-1.4479059 0.42170513 -0.014003664
-1.4368889 0.37967709 0.034431204
-2.3053558 0.47270516 -1.8356733
-1.4706674 0.41512758 -0.055075098
-1.3774852 0.2782487 0.19386442
-2.2988083 0.47732902 -1.8497577
7.2542324 -1.134288 10.008479
8.5112495 1.7140838 16.119184
8.5226068 1.7160869 16.15625
8.4959383 1.7346319 16.108017
8.4816008 1.738929 16.072468
8.5056601 1.7266388 16.074116
8.4712486 1.7414131 16.055519
8.50422 1.7116579 16.103704
6.6652665 1.0995032 17.064987
8.978837 -0.45430544 10.741456
5.3900876 -0.12325249 8.6214676
3.4594917 0.95302236 7.7131195
3.2236893 0.27701217 7.7710814
3.1641049 0.29155171 7.7626395
3.1786888 0.75965935 7.6786561
7.4931245 0.30866894 9.4941425
5.3115358 0.34210849 8.4166231
3.9340293 -0.37386882 8.1117086
3.6312878 1.0184959 7.745183
3.0940342 1.2100677 7.6706085
7.7042332 0.29221982 9.5851221
6.3292608 0.26112694 8.9174433
3.2134674 0.76183271 7.6827927
3.4687617 0.94939286 7.7164817
3.1796248 0.75886881 7.6790824
3.1677206 0.29453307 7.7599168
3.2228367 0.27750716 7.7700424
5.4559994 -0.14933404 8.6540804
8.9990988 -0.45489827 10.757277
3.1613619 0.74662596 7.6734533
3.4177341 0.61156362 7.7226777
3.9381332 -0.37546429 8.1159
7.6715035 0.29199666 9.5835657
6.3406239 0.25514647 8.9267349
3.4193645 0.61069423 7.7237825
8.9590378 -0.44168738 10.731992
3.1790166 0.73970568 7.6749539
3.2145035 0.76085126 7.6830182
3.5140426 0.90752482 7.7219491
5.5000157 0.30901942 8.4866362
8.5298033 -0.41795301 10.451889
3.479414 0.94740564 7.7180018
8.9481344 -0.44132623 10.721121
5.4718094 -0.16128381 8.6736622
6.3365717 0.25460976 8.9203701
3.208297 0.72011644 7.6848345
3.2224858 0.76174051 7.6824784
3.5076349 0.91259509 7.7238789
3.8429034 -0.16163313 8.0052357
3.7268896 -0.051352005 7.9361782
3.5004621 0.93245322 7.723094
5.4653602 -0.15982017 8.6723471
6.3121514 0.25108525 8.9059849
7.5653605 0.29509351 9.5324984
3.2063603 0.72091997 7.6827202
3.2106769 0.7598893 7.6791873
6.1453333 0.21372975 8.8465967
3.9565711 -0.3686859 8.113575
3.3866158 0.62139004 7.7186823
8.537921 -0.41124961 10.476811
5.5218916 -0.16644974 8.6958027
3.4842048 0.94353527 7.7213173
6.3454638 0.27338377 8.9247799
3.6142681 0.85280955 7.7473907
3.2150095 0.72304219 7.6849942
3.4638495 0.89848459 7.715879
3.4636497 0.99372536 7.7173185
3.3974023 0.61981302 7.7213206
3.470962 0.89920104 7.7152343
5.5330324 -0.18697931 8.7209692
3.6530402 0.84424281 7.7537599
6.4335217 0.26202607 8.9763002
3.4695244 0.93124413 7.7178903
8.5158815 -0.43863058 10.467766
5.5004539 -0.18353514 8.6928625
6.4466944 0.2524474 8.9617739
3.8933206 1.7498835 7.3840055
2.2089853 1.4278765 7.5744886
2.2425964 1.40745 7.5617208
8.4033136 -0.77043098 10.031569
8.5048847 -0.78599864 10.133132
7.9944901 -0.74330938 9.6177034
8.5199823 -0.79230016 10.150104
7.9133215 -0.73063058 9.5483971
8.1511078 -0.75946879 9.7844439
8.0453424 -0.75025666 9.6958857
8.0138578 -0.73932391 9.630456
7.9236765 -0.73355591 9.5668459
8.5357685 -0.79722619 10.181191
8.4285421 -0.77451622 10.057853
8.1528988 -0.76330131 9.7895031
7.92167 -0.72917372 9.5612364
8.0351496 -0.73647767 9.6387749
8.2307091 -0.75434262 9.845336
8.069912 -0.75330544 9.7231874
8.4457865 -0.77971888 10.057235
8.5580101 -0.79841459 10.199538
8.6550236 -0.81190532 10.293022
8.3911505 -0.7760253 10.017115
8.0025377 -0.75433922 9.6819715
8.2533302 -0.76115125 9.8878107
7.9542866 -0.73524821 9.5882721
7.8900709 -0.74381912 9.5682116
8.6732855 -0.81472307 10.293378
15.811824 -2.7701635 17.439369
2.525898 -1.0937349 1.6338266
2.121918 -0.86348289 0.61083317
2.5790677 -1.0423239 1.8466511
10.864491 -8.3569956 14.516278
10.663923 -8.1951847 14.306261
10.886261 -8.3720398 14.635408
8.8706722 -6.8697462 12.590549
9.5389652 -0.59035945 25.756321
9.041091 -7.0384364 13.244393
11.056336 -8.4620771 14.887835
9.2213583 -7.1299458 12.634356
10.914184 -8.3591328 14.761279
9.4872265 -0.54667568 25.686668
10.017785 -7.7836509 13.888511
10.193389 -7.7707763 13.731744
8.5309296 -6.2300634 15.789765
9.8821182 -7.5311093 13.190196
8.5066433 -6.1020823 16.072021
8.8978338 -6.6538491 18.00544
6.2208166 -1.5091438 9.311985
6.2119374 -1.5043689 9.3029394
6.1878829 -1.4944923 9.2871218
6.1973615 -1.4956272 9.2945013
6.1932039 -1.1789403 9.4946938
6.1702886 -1.1646253 9.5309906
6.1889381 -1.177629 9.4986925
6.1773009 -1.1634634 9.5402346
6.1921687 -1.1809568 9.4929047
6.1720867 -1.1922939 9.5317545
5.772553 -2.2803316 7.2109957
6.8712449 -3.0449989 13.039929
1.431214 1.0381811 7.7276325
1.3558463 0.94956928 7.771183
1.3292049 1.0362188 7.5786743
1.2398973 0.92456818 7.6431427
1.3072777 1.0306352 7.5355439
1.336297 0.9384622 7.7585111
1.2003626 0.90799236 7.6048656
1.1771593 0.92024928 7.5369411
3.4107354 1.6230313 8.9442129
7.1965609 2.1791937 11.086849
7.9588113 2.2057714 11.621291
3.7002587 1.6257274 9.3316441
1.4821876 1.13149 7.5397654
1.3758227 1.0284224 7.6314492
3.6326714 1.5989172 9.2772121
3.409888 1.6265723 8.9330511
7.8862252 2.1927683 11.607656
3.6800637 1.6416984 9.2704697
2.7200475 1.4256536 8.6625614
3.4139524 1.6105632 8.9671059
7.2578025 2.1862195 11.09408
1.339324 1.0422534 7.5582352
1.1429124 0.89220876 7.504046
2.6982174 1.3818443 8.7075739
7.1898556 2.1666722 11.073999
3.3291717 1.6109622 8.8867798
7.2691245 2.179101 11.160406
1.0088943 1.0663164 7.8018708
1.0965461 1.0781528 7.7641602
-8.9272938 -2.4750376 5.8170395
1.1179285 1.1057868 7.7751002
-8.9462051 -2.4766932 5.8377647
