# .PCD v0.7 - Point Cloud Data file format
VERSION 0.7
FIELDS x y z
SIZE 4 4 4
TYPE F F F
COUNT 1 1 1
WIDTH 1548
HEIGHT 1
VIEWPOINT 0 0 0 1 0 0 0
POINTS 1548
DATA ascii
6.1020288 -3.7350221 19.501696
-8.2472534 -2.6746562 18.9849
6.3049111 -3.2390921 17.33194
2.9866676 -3.1257594 17.139334
3.0392799 2.3664951 13.325336
5.9545784 -5.1932669 18.784006
6.5255518 -2.2453668 16.929567
6.3795204 -5.1781111 19.111549
0.80263048 1.7418319 13.676142
-0.70199299 -4.5827055 20.721796
4.3499117 -4.0431061 17.845673
-3.62131 3.4364059 13.766847
2.3806312 -1.3928492 18.097151
4.1491146 -3.4345968 17.75531
5.1388707 -3.6781662 18.488569
5.1854033 -1.3340756 16.180756
4.6307807 -3.6025856 18.10779
3.3698502 -1.8146129 17.307926
3.1632128 -4.176445 18.431261
-2.8357863 -5.6687598 20.486477
2.372345 -1.0942036 16.601166
3.228683 -3.3012977 17.064877
5.2879376 -3.4156363 17.1478
1.9713501 -5.1477356 19.00989
3.1965742 -3.5826046 18.517382
3.4755692 -5.3539052 21.15217
3.0615213 2.4083443 13.485857
1.695218 -1.0753994 15.991783
3.8591776 -3.7154746 17.390018
5.6188354 -4.3550858 18.653004
4.8236732 -4.5298882 19.963869
6.0855846 -4.3335328 19.130381
-2.6079147 -2.8949981 18.094255
3.8485484 -3.276531 17.538317
6.4140425 -4.7368636 19.200541
4.4153366 -3.4731739 17.955175
2.1686983 -1.3183554 16.377457
0.76940238 1.2896796 11.508441
4.8278418 -4.0057411 18.214037
5.1632643 -3.7018096 18.504765
2.9960577 -3.9257703 16.833866
3.0312879 -3.2727292 16.916945
3.453253 -1.8610049 17.39356
-2.7695775 -4.8919988 20.389139
3.2952449 -3.3109329 17.114773
-1.0248908 -1.3559668 14.766644
-8.3384275 -0.64280415 16.254562
-0.6238656 -3.9646032 17.827362
-7.543016 -5.9102077 17.373293
-7.0413003 -5.398428 17.877544
0.27534133 1.4467123 8.0783882
5.199903 -6.2449398 18.087992
0.30371922 -3.1425722 16.301825
2.6274588 -3.3790841 17.500528
2.8833559 -1.6361636 14.929729
-9.0443068 0.24831837 17.619617
5.9784765 -2.6753607 16.401861
-8.9094038 -0.5144316 17.165945
-1.9196188 -3.3544061 16.792784
6.318552 -2.9309809 16.984962
6.1741447 -2.9150388 16.89603
0.34960285 1.3890002 7.9513125
-7.1584425 -5.4683905 18.189436
0.1331359 -5.5062342 20.566692
-7.1415 -0.2774618 16.423512
5.5464573 -5.5489025 18.975615
-2.6420405 -2.7950728 17.096371
4.2796435 -4.5342441 18.780464
-7.7389979 -5.5912914 16.799667
-7.7874722 -6.0707068 18.029808
6.1763911 -5.2489691 19.527401
-7.318397 -2.2408066 16.857008
-2.6950791 -2.8047173 17.351698
5.4692631 -3.2593656 17.291288
2.8959253 -1.6664953 15.042706
0.062373597 -6.6020513 20.698313
0.25495765 1.4361554 8.0241423
-7.0127773 -5.392045 17.844027
-1.0225458 -1.3434145 14.889863
2.6811156 -3.4003718 17.725588
5.9084272 -2.6824138 16.264032
2.2492738 -5.6141453 20.91983
0.13838492 -5.5343595 20.787413
2.0834093 -1.2657379 15.372153
-0.64443475 -3.4180562 17.373854
-8.4198761 -3.0051715 16.921566
-0.89752209 -5.0373354 19.935944
-7.2965212 -0.24749941 16.742649
4.312542 -4.5347519 18.915199
7.0837879 -5.6295924 18.34712
-0.60802263 -4.061151 18.161921
6.293076 -3.2172298 17.027048
-8.6754322 0.15266258 16.916327
3.7125971 -7.0381932 18.733028
-7.8410177 -5.8510633 17.401278
0.82438481 1.24165 11.400418
-7.6176796 -5.9786873 17.604628
-7.4677472 -0.18327682 17.148058
-0.90715355 -5.1333323 20.612915
1.5712062 -1.0526662 14.883735
5.6527076 -1.3057337 16.897478
5.7234282 -6.6932869 20.155132
2.1370544 -5.4661169 20.271286
7.3523483 -5.7481699 18.997936
-2.0462108 -3.4594438 17.635185
-7.1462522 -2.2393103 16.471731
-2.616729 -2.7940416 16.980944
5.1978984 -3.183146 16.463366
2.7518368 -3.4264109 18.115255
6.0256453 -2.914799 16.563055
-8.2390728 -2.9849546 16.531172
5.7156248 -5.6567121 19.491081
-1.0406781 -1.3160455 15.39889
1.9546958 -1.2612196 14.632065
-1.9723115 -3.4204643 17.107141
5.2545414 -4.0637383 18.097586
-1.0015376 -1.3289614 15.401342
5.7097511 -6.6387453 19.951012
4.5641236 -4.2044215 18.291763
4.0752478 -4.1477237 18.129354
-2.6573133 -2.8416295 17.520584
-7.2911119 -0.24818259 16.640278
2.3026798 -1.3311131 16.580984
-2.7359781 -5.6595755 20.083603
0.43046245 -5.8277612 20.482714
1.9437727 -5.8680115 20.316971
-7.2434292 -2.693969 16.592659
6.5040536 -5.459826 19.4991
5.5046749 -4.9342904 17.266445
2.0942662 -5.3240843 19.574684
2.7587817 -3.4446285 17.990822
0.73795527 0.85733467 9.8566742
0.063035347 -6.7361288 20.841389
-2.5795014 -2.7517772 17.013287
6.4400034 -4.9857473 19.44964
0.7738384 1.1010797 10.609169
4.4883904 -4.5983148 19.324896
1.8281343 -5.7591643 19.565784
-2.7664287 -5.6693397 20.137877
0.42022726 -6.0518084 19.959499
6.7346883 -5.4154601 19.775272
-7.334487 -2.4653573 16.649586
5.160687 -6.1933312 19.597879
2.0790536 -5.3896742 19.864473
3.0197275 -4.8573174 18.336639
3.3522711 -3.4259579 17.553921
-7.504529 -0.20326172 16.96505
2.7778089 1.9523538 11.614044
1.770175 -6.0320759 20.592091
6.4683857 -3.0180233 18.318752
5.3679161 -2.9764311 16.523619
5.9404755 -5.8409691 20.286415
-2.5197423 -2.7145002 16.950994
0.20951256 -5.3795877 19.966381
2.0349362 -3.1584375 16.415129
-7.4556928 -2.7458339 16.971537
0.78239101 1.2049949 10.962525
0.79600751 1.0124944 10.954772
3.2984791 -5.1132708 20.087894
-2.0810966 -3.4352965 17.264887
-0.61478049 -4.2121062 18.57218
4.1906071 -4.3569083 18.032555
1.8111311 -5.7235284 20.715357
-7.4146323 -2.4590058 16.913691
2.1195099 -5.52631 20.75095
5.4828668 -3.4837062 17.605978
-2.4889762 -4.6581769 18.729118
2.9556911 -3.3800104 17.058187
2.0157301 -5.4323468 19.918619
-0.88137907 -2.6074338 15.62307
0.80589807 1.1384524 10.728827
0.80775654 0.91190058 10.666683
-0.51105475 -4.1757784 17.989319
4.8167772 -1.3279312 14.858836
3.3702321 -3.3662567 17.50602
4.0814676 -3.2907841 16.620499
5.7956028 -1.0073915 17.065338
5.9645228 -1.2219433 17.433754
1.8940877 -0.75463957 17.250015
5.7728944 -1.0103945 17.093138
1.9727802 -0.71756774 17.827063
5.8054538 -1.2459856 17.076408
1.9280457 -0.74481392 17.589413
5.7006302 -1.2718636 16.821093
1.2008374 2.1617494 14.43317
5.8871469 -1.0204576 17.484928
1.1820436 2.1104298 14.290421
5.7809067 -1.0607449 17.166725
1.9254053 -0.80781239 17.508142
5.9838848 -1.0337459 18.085224
1.268553 2.4569128 15.227258
5.9131441 -1.045808 17.925079
1.0521473 1.6520715 13.197848
-9.2828636 0.15510134 18.188231
-9.2423077 0.11344114 18.173862
-9.2441912 0.10324055 18.199926
2.8221035 -1.7699487 15.188561
4.5435462 -4.0993676 15.96229
4.574151 -3.7369776 15.753216
4.4853983 -3.717747 15.503134
4.5023413 -3.7442167 15.701947
-3.9894245 0.60529494 18.555416
-4.453804 -0.68396473 17.718018
-4.0325079 0.62003362 18.634966
-4.3502216 -0.73219675 17.460749
-4.6322117 -0.68611687 17.745209
-4.3162289 -0.7116608 17.651844
-5.4194918 -1.5229552 17.088911
-5.0345893 -1.1301823 17.187658
-1.5316792 3.4774158 19.413755
-2.9118814 2.9426107 17.981216
-2.3971891 2.3094704 19.582861
-1.0910515 -2.0459337 19.455929
-1.1136647 -2.1371281 19.316315
-0.038160753 -1.6152914 19.584333
2.1990371 -1.3858588 18.454565
2.3804462 -1.4621173 18.382494
2.2708173 -1.4972155 18.047319
2.2471309 -1.4504751 18.218374
2.8708086 -0.16588236 17.954897
2.4237187 -1.3862752 18.399582
2.458617 -1.486015 18.399908
2.1973839 -1.3757585 18.505728
2.8432324 -0.12738906 18.057856
2.2144697 -1.3018785 18.72422
2.8483329 -0.16318604 18.009735
2.3060918 -1.4407613 18.305006
2.8265181 -0.057094194 17.974737
2.8264356 -0.20234099 17.994194
2.3262689 -1.4414016 18.26651
2.798219 -0.093519576 18.112446
2.6415298 -1.0987943 17.788887
2.854053 -0.22318788 17.773851
3.1211815 -0.88092691 17.78237
3.1048915 -0.8820194 17.748684
2.3871586 -1.5143092 18.251202
3.0181932 -0.79300034 17.777124
2.3601294 -1.5420895 18.147909
3.0328355 -0.60750324 17.985594
3.0112362 -0.80918103 17.732819
3.1129653 -0.72870332 17.793522
3.1040843 -0.76745683 17.6763
3.0183578 -0.68682081 17.866953
3.0355966 -0.77389199 17.980539
3.1868393 -0.7680546 18.02709
2.9965291 -0.71187079 17.668924
3.1222758 -0.90747118 17.640173
3.057529 -0.56589621 18.058241
2.1671522 -1.4736999 18.171656
3.0380278 -0.77307016 18.016384
3.1330602 -0.89845008 17.628937
3.0284553 -0.61974573 17.989777
3.2126608 -0.90842772 17.942249
0.9397561 -1.736781 18.4909
3.0039797 -0.64903575 17.671537
3.2201679 -0.98703879 17.620338
-0.035442375 -1.3156501 18.979689
-1.4387982 -2.2262864 18.240181
-1.3753972 -2.1473625 18.214989
-1.1876401 -2.2707903 17.901003
-0.68220955 -2.3241796 18.428514
2.7212715 0.56224352 18.635899
2.5630367 0.5345763 18.594208
0.0020660292 -1.490043 18.174017
-1.366868 -2.1574006 18.123335
-1.2435368 -2.1934462 18.210732
-0.67562097 -2.3382001 18.323479
-0.96670818 -2.1881464 18.391321
2.5580845 0.58323115 18.707895
2.6588767 0.43853539 18.249647
-1.2487258 -2.1853609 18.258532
-0.71097147 -2.2761979 18.78367
-0.66321874 -2.3569558 18.172899
-0.96756405 -2.2159276 18.334555
-1.2589747 -2.2688751 18.329153
0.054880269 -1.5345852 18.287767
-0.68339688 -2.3012841 18.508194
2.7007914 0.59095615 18.52401
2.4455824 0.37305146 18.159079
0.057238076 -1.5450374 18.224966
2.6660991 1.4137915 18.784721
2.7132578 2.0670686 18.624123
2.5457036 2.0326276 18.60214
2.6149452 0.17482701 17.74135
2.4749749 0.16047788 17.769081
-0.23861407 -2.6170931 15.54601
-0.20048477 -2.6674695 15.445246
1.4236488 -1.7612228 18.663246
2.7606359 0.18248127 17.869009
2.60307 0.19633952 17.771738
2.4415858 0.21059376 17.835585
2.7368243 0.0039871889 17.832518
2.7344546 0.19436751 17.915617
2.6178 0.18278289 17.764952
2.4241281 0.19988388 17.841679
2.7355793 0.15859231 17.890051
2.7312598 0.021021724 17.868557
2.6212461 0.21822481 17.808699
2.3799453 0.20200415 17.787212
2.7537088 0.18908799 18.017176
2.7264547 -0.044134501 17.780548
5.3275228 2.4932573 16.610487
5.2235136 2.4098358 16.655289
2.7209077 0.058235954 17.88476
2.270364 0.073515631 17.504992
2.6797342 0.0084582428 17.855625
-1.6916735 -0.30770126 17.557943
-1.6901248 -0.32620528 17.537493
-1.6840415 -0.39650455 17.457262
5.0291543 1.5514038 15.715753
5.1515145 1.761716 15.869059
4.9039326 2.0114315 15.895724
-1.6146395 -0.43151817 17.269279
-1.692943 -0.27196518 17.238581
4.9893174 1.6487126 15.70313
4.885098 2.0008745 15.866092
5.051897 1.7507727 15.887388
4.9523087 1.9187542 15.867386
0.51243263 -1.8166956 18.644403
0.51782978 -1.8430932 18.617386
0.78279883 -1.7017885 18.702919
0.76812762 -1.7400453 18.577267
0.51758641 -1.8086985 18.721607
0.85725844 -1.6896346 18.704762
6.8713374 1.8820908 14.314622
6.5930853 1.8725477 14.840926
4.9147358 2.0326746 15.827531
2.4628069 0.78746188 17.43565
0.81361777 -1.8864939 18.511398
2.2654824 0.014511378 17.293814
-0.78120959 -0.80478054 17.71843
-0.78590333 -0.7496019 17.847303
-1.2034961 -0.56629473 17.748144
-0.74168712 -0.7468133 17.866568
-0.79738486 -0.74692625 17.760841
-1.1704797 -0.58461404 17.65176
-0.97143221 -0.69088989 17.979668
-0.69413316 -0.79004747 17.795179
-1.1149502 -0.61601853 17.574711
-1.1802042 -0.76517171 17.670078
7.3809242 3.1925261 16.112743
-1.1629494 -0.56063241 17.624372
7.1037931 2.840987 16.021349
0.76808733 -1.67738 18.900366
0.49700004 -1.6929688 19.212852
0.87099218 -1.6986011 18.78336
7.0013652 3.4417591 15.52775
7.1851735 3.2359965 15.423975
7.0469799 3.5778162 15.587742
7.180284 3.2254813 15.430025
7.1092424 3.2853684 15.440016
7.0980539 3.7169518 15.675961
2.2548659 1.4106066 17.493509
-3.9583814 -0.35933954 17.744038
-3.9179428 -0.2894741 17.678547
-1.8483646 1.4793136 16.728212
7.2528896 2.2055795 15.829154
7.392735 2.1169145 15.818756
7.2588634 2.2104692 15.830763
-3.8810318 -0.34477252 17.673475
0.92950284 3.1479146 15.739803
0.92302269 3.205569 15.780008
7.2859569 2.2628973 15.894337
-3.8763216 -0.35321814 17.64436
7.3843069 2.1266773 15.863733
7.2618423 2.2574108 15.839642
0.93025488 3.1288197 15.670652
-1.8231664 1.425136 16.676527
0.93150431 3.1339266 15.693422
-1.8444957 1.468498 16.755993
0.97067213 3.2308955 15.811421
-1.8537836 1.4836078 16.792944
-1.8696967 1.7663637 16.45911
-2.1601417 1.9157132 16.350765
-1.3997567 1.7003653 16.390951
2.0401337 3.1453793 16.140192
-1.8160295 1.3381642 16.637671
-2.2133262 1.9397779 16.364914
-1.8985463 1.8198187 16.407564
-1.7737947 1.8556514 16.041006
-1.2366424 1.8637515 16.485224
0.90669739 3.2814341 15.746902
2.0009212 3.0961659 16.104689
6.5980811 2.9960697 15.966448
-1.836496 1.3037454 16.698278
-2.2390273 1.9477302 16.373951
-1.8609241 1.803269 16.424498
-1.7963774 2.0195334 15.991837
0.98658681 3.2223334 15.775628
1.9565327 3.0737629 16.072535
8.2352428 2.2108614 15.53738
7.3305087 2.3185124 15.893433
7.2053885 2.2822917 15.941434
7.1896806 2.3056052 15.91011
2.4956453 -1.4335493 18.466726
3.1096103 -0.32856664 18.593382
3.1785219 -0.41184565 18.5096
3.1183867 -0.44974861 18.664452
3.0975902 -0.34288287 18.526314
3.1859019 -0.41793433 18.515694
2.4768867 -1.419991 18.498137
2.4035037 -1.3017919 18.48016
3.0892091 -0.31394079 18.578112
3.1849446 -0.46577203 18.445038
3.1995018 -0.65553361 18.344786
3.1186805 -0.41910449 18.739164
2.3754461 -1.3266097 18.42515
2.4642479 -1.3823328 18.580193
8.1469803 2.0852451 16.54912
8.130229 2.0519888 16.508242
3.2182388 -0.5473544 18.594048
3.1065054 -0.38652071 18.621168
3.0786784 -0.35240927 18.458542
3.222013 -0.65917718 18.33769
3.1020286 -0.34862623 18.586769
2.5871985 -0.93652648 18.08251
3.1236079 -0.40378615 18.765749
3.1906464 -0.30992389 18.803812
3.1082504 -0.1898229 18.876244
3.0993295 -0.20682517 18.798429
3.1814208 -0.41155377 18.592159
3.1136658 -0.5079906 18.685749
3.085793 -0.25235912 18.69479
3.2114422 -0.32456246 18.812977
3.1101067 -0.3868711 18.778708
3.0984387 -0.2116593 18.793043
3.096626 -0.4136284 18.658546
2.2770092 -1.8068186 17.142422
3.1025677 -0.53985167 18.475452
0.56954181 -3.6985507 -11.678061
0.5395304 -3.6816955 -11.744016
0.73319912 -3.7109218 -11.416525
8.3895693 -3.2130392 12.282845
8.9435806 -2.2325239 13.50426
8.8971338 -2.2416883 13.47253
8.8354473 -2.1614988 13.480345
4.7889066 0.66275871 18.315086
5.1929307 0.81520534 18.545294
4.86623 0.70743477 18.239685
4.8621035 0.69987386 18.257925
5.1828122 0.79878962 18.5245
5.1436296 0.76513928 18.526415
6.74686 6.8442402 18.67811
6.4240241 6.2803268 19.386089
6.7446899 6.8495646 18.680632
6.4380398 6.2865219 19.400354
6.4144869 6.274107 19.388908
6.7283945 6.8162465 18.724768
6.709053 6.7981968 18.714569
6.4069438 6.2420092 19.401829
6.7518253 6.8117867 18.743765
5.214458 -0.83275008 18.953859
7.3472362 5.692482 18.342674
7.3394957 5.680161 18.347383
5.1994481 -1.2738585 19.265844
5.178267 -0.91942561 19.043045
5.1642728 -1.2753822 19.300541
7.3221121 5.6946936 18.361425
7.3736887 5.600915 18.316093
5.3096819 -1.2640828 19.272274
5.1631927 -0.82998753 18.937426
5.1180706 -0.87106866 19.019272
5.0793433 -0.8907122 19.002134
5.5047755 -1.4772527 20.634922
5.1797843 -2.0171161 21.559994
5.1544766 -2.0243821 21.580912
5.2223878 -1.9498525 21.467497
5.2866678 -1.9700756 21.415102
4.7494512 -2.5154705 22.623695
5.1897206 -1.9713465 21.524137
5.2086272 -1.9996413 21.492334
4.6507249 -2.6072068 22.805855
5.4150615 2.7918353 20.746294
5.4462743 2.7607617 20.770357
5.4526324 2.8182416 20.795458
5.444787 3.0375223 20.877165
5.6079969 -2.3889096 22.015297
5.479279 3.0732 20.841324
5.3916392 2.7380261 20.779762
5.4675941 3.0719712 20.852713
5.5484204 -0.3908861 20.584328
5.6656518 -2.37252 21.959431
5.5990801 -0.35920227 20.578302
5.5419931 -0.38555047 20.632524
5.3816085 2.5551991 20.773762
5.384541 2.6120689 20.737316
3.8730724 1.5142434 22.550259
4.0436258 -1.2946855 20.854221
4.120924 -1.5690935 20.960461
4.2290363 1.8886693 22.019678
4.2416091 -1.2228254 20.510996
3.9663968 1.5969733 22.420767
3.8112421 1.4274929 22.615219
4.2522368 -1.5117207 20.776268
4.1613126 -1.1935854 20.610203
4.4241633 -1.4574689 20.487959
3.9054213 1.6254233 22.647823
3.7984633 -1.6074922 21.511744
4.1724486 -1.5068512 20.880253
3.9075868 -1.6075711 21.293629
3.6699257 -1.6500336 21.640085
4.3564019 2.2131708 21.838484
3.986475 -1.2208897 20.424938
4.4972062 -1.0692351 19.535156
4.8012166 -1.4780567 19.632374
3.16223 -1.1092386 21.172764
3.5741236 -1.8594406 21.178518
3.6138165 -1.8535439 21.125757
3.2878308 -1.0580333 20.947086
3.3435152 -1.0098984 20.921026
3.2291908 -1.0898178 21.037437
3.3905215 -1.0245332 20.731159
3.295053 -1.0769095 20.901323
3.8092353 -0.80321473 20.133959
3.4892187 -0.95842779 20.729136
2.9315882 -1.3080188 21.582579
2.8335831 -0.31323823 21.885874
2.7666934 -0.35671312 21.995647
3.1252072 -1.1173949 21.281981
2.9997113 -1.181837 21.470274
3.1806316 -1.1104633 21.12834
3.2326605 -1.0905162 21.023306
3.2164311 -1.1637391 21.009487
2.9443176 -1.2810141 21.538004
-1.7365645 -3.593874 30.138952
-1.7195282 -3.584012 30.11005
0.95546567 -2.4594772 25.469181
-1.7620865 -3.6248083 30.201235
-1.6756556 -3.5695615 30.054047
0.74919248 -2.4699516 25.810616
0.97141725 -2.4667861 25.452848
1.0025704 -2.4694035 25.407265
1.0317256 -2.4648635 25.363892
0.87643367 -2.4682348 25.610292
2.0055084 -2.3600595 23.725374
1.7599506 -2.3755202 24.112408
-1.8099756 -3.7261803 30.34444
1.3884294 -2.3395972 24.635162
1.9363676 -2.3653138 23.840815
1.7402966 -2.3795955 24.228619
1.8058865 -2.3702998 24.042646
2.3353629 -2.2797239 23.064907
2.137727 -2.3572569 23.508938
-1.6674036 -3.5891631 30.058624
2.4910669 -2.3369567 22.923521
-1.5840448 -3.5186317 29.877817
2.0793741 -2.3001244 23.557043
1.4346147 -2.3229997 24.418249
1.3118994 -2.3235493 24.634586
1.2620679 -2.3400731 24.743305
1.3010864 -2.3243473 24.651787
2.0348656 -2.3193915 23.392971
1.8881106 -2.3059812 23.608694
-0.50161552 -2.7200272 27.88069
-0.8173824 -2.9612129 28.472569
4.0521584 0.83837491 19.277632
3.7335851 0.58461654 19.908913
4.2326021 0.91440898 18.983858
3.9640923 0.73329341 19.45676
4.7258496 1.3177787 18.02264
3.2955046 -1.2400078 19.126905
2.8720601 -1.3465607 20.006638
2.7476561 -1.5165527 20.44318
3.2764764 -0.74806613 18.686626
3.092556 -0.93657559 19.082722
3.2564771 -0.75818062 18.729719
3.0547471 -0.86030275 19.259306
3.224957 -0.87584132 18.754827
3.0634618 -0.94075763 19.139021
3.2708318 -0.78197283 18.72294
3.137166 -0.91859734 18.972754
3.0174556 -1.0517421 19.278694
2.5405171 -1.5383011 20.280487
2.6319993 -1.5713122 20.153042
3.2914293 -0.8164047 18.41601
-0.33004841 -2.4057 27.461559
2.9470263 -3.6482646 24.456251
0.036746897 -2.413491 27.062269
0.040880181 -2.4144993 27.058006
3.0392647 -1.2636482 18.589931
5.1769509 -0.73603803 12.987946
4.0715556 -3.5067861 22.120926
3.8076007 -3.4341469 22.478743
3.9241583 -3.4651487 22.339123
2.6020603 -1.4634763 19.755775
2.4923835 -1.1336004 20.558235
2.9905448 -1.2987466 19.776686
2.6044343 -1.0284913 20.27442
2.2945564 -1.413689 21.322613
2.5422945 -1.1211532 20.426498
2.527986 -1.0549161 20.460537
3.3346121 -2.4932492 21.083261
2.64081 -2.4405227 22.370586
3.0956562 -2.5340834 21.677446
2.5715883 -2.3817155 22.454412
2.5280592 -2.3772938 22.648338
2.59867 -2.4689012 22.681179
3.0576701 -2.4621663 21.69717
3.127929 -2.5407422 21.780125
3.0675626 -2.4372516 21.749043
2.71311 -0.94672018 20.053724
3.1915891 -0.97713095 18.899971
2.5753448 -1.3619921 20.662357
2.846961 -1.4371618 20.242321
2.9583735 -1.2937324 19.763678
2.7791479 -1.0793743 19.902142
2.4919307 -1.0148464 20.591228
3.228868 -2.5504954 21.466139
2.4928842 -1.3580761 20.754978
2.4117467 -1.05293 20.809963
3.0789111 -2.4273548 21.527311
3.1478741 -2.4682763 21.609604
2.4199977 -1.1783507 20.722347
2.3510873 -1.5314128 21.345497
1.8951508 -1.2194967 22.074238
2.4019864 -2.3807652 22.872967
3.3254993 -1.1880805 18.796431
2.3688989 -2.3307335 22.865389
2.5194762 -1.0637776 20.611712
2.4861593 -2.4013035 22.748817
-5.1441746 -0.40648004 32.040836
0.65267599 -2.2638061 26.42037
0.60235322 -2.2562463 26.490864
2.5780087 -2.4499464 23.446554
2.7703171 -2.4399588 23.199381
-0.11369729 -2.1534684 27.354916
2.9903946 -2.4604406 22.879419
1.7992357 -2.3336155 24.507095
2.5638328 -2.465302 23.472717
0.48895928 -2.2024505 26.463957
1.5700804 -2.3166451 24.850935
-1.4296298 -1.9486171 29.011011
1.6801908 -2.3365636 24.691097
2.7728662 -2.498004 23.219559
1.8947635 -2.3600132 24.37652
0.53125858 -2.3144567 26.829718
0.37828901 -2.289767 26.998234
1.3082886 -2.2626014 25.265089
0.56193519 -2.3152921 26.78495
1.6862049 -2.291723 24.713116
-0.62450933 -2.1751485 28.061359
3.79353 -0.68805164 19.103279
2.17278 -1.7544428 23.790571
3.4649487 -2.7266746 25.866159
0.76595396 -0.2225444 26.34264
2.5659225 -0.50997651 23.817947
2.6441715 -0.85597968 24.038984
2.1766214 -1.0008547 24.604643
2.6208572 -0.84279245 24.050894
-0.15368308 -1.9481314 27.673225
3.2185941 -1.5037735 24.232668
2.4083982 -0.89782482 24.281834
1.7456985 0.50619262 25.091093
1.637324 0.38131651 25.201553
-0.81023699 -1.9620044 28.299545
3.9708779 -0.29415682 22.62933
1.9878162 -0.98189682 24.992018
3.0234971 -0.60838366 23.755032
1.4455937 -1.1587651 25.624134
1.1000894 -1.2694311 26.029123
-1.0159149 -1.9903412 28.479843
0.77219492 -0.36215708 26.410168
0.91842264 -0.23487173 26.252575
2.7266226 1.49137 24.09436
0.75485212 -0.41762176 26.422626
1.8514564 -0.9537077 25.440615
1.711602 -1.7061507 26.434357
3.3996043 0.031525873 23.590733
1.0025915 -1.3066313 26.386684
1.1336092 -1.046265 26.125828
2.0360363 -0.62550825 25.116089
3.3798921 0.027172118 23.610287
0.40738529 -1.8573014 27.504026
-2.1092725 -2.1844568 29.229977
0.82438409 -0.28661716 26.321728
0.89737332 -0.32721782 26.291677
1.003884 -0.41044423 26.32407
1.614583 -1.1780853 26.327732
1.6218648 -1.1911231 26.349827
1.6117969 -1.1790223 26.329233
1.0401154 -0.47912663 26.308195
1.0501107 -0.33057961 26.289703
2.4192495 -2.6053221 26.200485
2.5194993 -2.6351125 26.137362
2.7651973 -0.57124788 25.090544
2.5298014 -0.77996582 25.352875
2.0127118 -0.38519251 25.651205
2.5168123 0.04221908 25.144102
4.37569 1.1425657 23.48996
4.8428488 -0.61727363 23.968138
2.2514226 -1.041177 25.668613
2.1684248 -0.18621929 25.479351
2.421165 0.06543608 25.213455
2.5418701 -2.5087934 26.052883
2.6162581 -2.2305861 25.850119
3.3195956 -1.8707545 25.174305
2.5179648 -2.6497905 26.145035
2.4143913 -2.8687189 26.334875
2.2226443 -1.0606141 25.688055
1.9513782 -0.35010347 25.693764
2.3851256 -2.6382809 26.248926
2.492192 0.017408151 25.169712
4.3488503 1.1528986 23.502562
2.5446358 -2.5050316 26.037127
4.8171325 -0.62060082 23.979202
2.4093785 0.060498044 25.223434
2.6257234 -2.2115209 25.830677
1.7170658 -1.4427463 26.220366
2.8688595 -0.56106615 25.016567
1.7823949 -1.4546357 26.164362
4.3366017 1.1470542 23.50164
2.6945314 -0.15941392 25.041199
2.7499897 -0.56896788 25.110594
2.4036906 0.029536625 25.237309
2.7784474 -0.26654705 25.003714
2.4865277 -2.6999841 26.198177
2.4261334 -2.8782742 26.329866
2.389138 -2.633858 26.233812
1.8921907 -0.38925344 25.745256
2.9518044 -0.52222651 24.93652
2.2446039 -0.99480206 25.646532
1.7100843 -1.4703116 26.245264
2.6218073 -2.2153761 25.845753
2.0242107 -0.42637908 25.652578
4.3238225 1.1706542 23.486814
2.9230528 -0.52700734 24.95351
2.168267 -0.18994418 25.469517
2.7755144 -0.24571168 25.012671
1.8832082 -0.43198872 25.75955
2.4080956 -2.8763885 26.342003
1.6828524 -1.4325402 26.24984
4.3219109 1.0950458 23.555035
2.7809432 -0.51093733 25.074127
2.9038022 -0.59302115 25.0014
2.646595 -0.71299982 25.217354
2.2201376 -1.0476149 25.687704
2.1036336 -1.0993561 25.777918
1.6894675 -1.4187341 26.234573
2.4050131 -0.0033803596 25.224718
2.4812367 -0.10192507 25.207932
2.1948273 -0.23554537 25.471672
4.2546716 1.1517373 23.562462
2.508729 -0.63586009 25.312746
2.6586876 0.0055217873 25.027639
2.6138134 -2.2327571 25.892296
2.7334447 -0.11542061 24.988644
4.2235732 1.1399422 23.549278
2.6112533 -0.079190619 25.094772
2.9040956 -0.63823766 25.01193
2.2025292 -0.26916322 25.50153
1.7330503 -0.57921249 25.927469
1.6052223 -1.4215888 26.299219
4.2303634 1.1417013 23.577311
2.3389058 -0.2529203 25.377125
1.6548536 -0.6685403 26.020407
-2.9987907 1.3891125 25.684242
-2.9337022 1.3315806 25.770409
-3.0076394 1.3844494 25.706343
-2.938729 1.3392614 25.760014
-3.015754 1.3789649 25.716734
-2.913677 0.75308502 26.392921
-2.9364579 1.2761472 25.799118
-3.0340619 1.4083277 25.662455
-3.0521801 1.5924989 25.446259
-3.0203609 1.3987169 25.672497
-2.9743807 1.3207803 25.828878
-3.0039744 1.2748137 25.887682
-3.0558434 1.6085776 25.484549
-3.0426633 1.2666348 25.909304
-3.0183244 1.5337703 25.509087
2.8446081 -0.12183368 23.555307
1.4483191 0.93461579 21.778028
1.4267932 0.88136452 21.799726
2.8153546 -0.2241303 23.597157
1.4194199 0.89809841 21.789656
1.4146006 0.9279961 21.79665
1.2426944 1.0082505 21.574247
2.8814528 -0.14540242 23.638626
1.4399258 0.94205838 21.781551
2.5585246 1.488479 21.288986
0.35931534 1.7539732 20.347084
2.4029317 1.2562609 21.339128
2.4708376 1.4602677 21.236872
2.556819 1.6676246 21.243078
2.4749095 1.458668 21.276804
3.2510436 1.280302 20.725483
3.4979835 1.1034456 20.90036
3.2460389 1.2626216 20.749475
3.1107428 0.98877221 20.89253
3.5350027 1.0859886 21.169123
3.5226963 0.94768417 21.089439
3.1718426 1.0846009 20.958399
3.0705516 1.1616013 21.010077
3.013696 1.0007943 21.063965
3.0470719 1.0886092 21.017694
3.5163054 1.5503173 21.201139
3.267205 1.2537515 21.360998
3.6245451 0.91890502 21.200987
3.6549256 0.93452007 21.250444
3.3555677 0.95906609 21.16288
3.5214167 0.87660211 21.292404
3.9715385 1.2094151 21.068047
3.4149449 1.0235482 20.874823
3.0917969 0.77919811 20.950087
3.5434308 1.0774329 20.956982
3.4659269 0.92350364 21.02639
3.4079931 1.0090464 21.186132
3.5230076 1.0191914 21.264362
2.8978138 0.31356585 21.154634
3.5039744 0.87841952 21.306641
3.4166491 0.47873557 21.287197
3.4513807 0.77814394 21.356627
3.7712231 1.6218808 20.982647
3.8300223 0.89743674 21.350925
2.8356452 0.26038852 21.697697
2.8275602 0.34723032 21.302696
2.9522927 0.53593701 21.621784
2.9113007 0.5176844 21.635244
2.9038184 0.53358316 21.629711
3.0154753 0.68779212 21.55098
3.2689416 1.0287805 21.4445
3.4677825 1.433529 21.299438
2.4776537 0.11624727 21.66894
2.6459064 0.41734385 21.707323
2.8407021 0.055864494 21.942652
2.1733544 0.25118232 21.276543
2.6640713 0.40983179 21.760279
2.7918873 0.23717335 21.846245
2.9190171 0.30033717 21.897154
2.5100243 0.18310794 21.628574
2.7478118 0.086685605 21.869478
2.7415748 0.49395543 21.509474
2.6770771 0.51896119 21.696346
2.2265153 0.46379304 21.268433
2.3962774 -0.052825101 21.664085
2.6165092 0.32470649 21.713278
2.7106874 0.44160917 21.761728
2.7865932 0.25294781 21.827526
2.89746 0.20316359 21.883268
2.2391188 0.45620182 21.312475
2.5147803 0.96361566 21.358318
2.559818 0.34616986 21.555531
2.479768 0.26268479 21.568163
2.7283206 0.16220197 21.819778
2.6557152 -0.37616074 21.997892
2.4255111 -0.33540615 21.602787
2.7558317 -0.077622116 21.738142
2.700856 -0.2129551 21.778709
2.508394 -0.59492677 21.774769
2.818157 -0.16425633 21.738068
4.9209228 2.6149051 23.39575
2.3185177 -0.96564877 21.535421
4.461215 1.6206179 23.477133
2.702059 -0.51420373 21.778133
2.39586 -0.95059538 21.567768
2.8555396 -0.24032937 21.720924
3.329983 0.076598063 21.296968
3.3354192 0.16324086 21.166969
3.6195788 0.54378128 21.186419
3.9231527 1.083017 21.087244
3.7216344 0.80219942 21.143623
3.0951438 -0.2923153 21.420599
3.866837 0.89773446 21.126677
4.2700253 1.597625 21.093891
3.8696802 0.71183872 21.374252
3.8671684 0.84452927 21.125673
3.0459971 -0.85968876 20.859465
3.1063528 -0.93731409 21.378433
3.0800822 -0.71557647 20.767462
4.0400176 0.81856018 21.239182
3.3071451 -0.23313294 20.932272
3.6865776 -0.39540607 21.624517
3.2154193 -0.52425396 21.097319
3.0957067 -0.73844028 21.086597
3.0802991 -0.82782775 21.106098
2.9348633 -1.4212602 21.426317
-1.4388274 -2.5532181 19.682114
3.6629486 -0.12285145 21.452433
3.20298 -0.38692206 20.642813
-1.4446719 -2.5919726 19.713348
3.8717632 0.29861999 21.375082
3.1843965 -0.39206818 20.662003
-1.434616 -2.4672055 19.651609
3.2243321 -0.38505962 20.66124
-1.4607669 -2.2936566 19.552349
3.2849739 -0.23869908 20.628519
-1.8760526 -2.0521846 19.657673
3.7610357 -0.23086548 21.617176
-1.8684845 -2.102608 19.678646
3.2031491 -0.47808522 20.809742
1.6542585 -2.8978732 18.468298
1.5958242 -2.8851006 18.440228
1.5574068 -2.7908721 18.448128
2.053195 -2.3627248 18.922197
1.4583801 -2.6844049 18.428988
2.2237561 -3.552197 18.329836
1.3873903 -2.5459323 18.438532
1.9026586 -2.7484493 18.537006
3.2584391 -6.4101048 19.162859
3.254595 -6.3771143 19.194588
2.2057767 -3.1734118 18.55526
2.2329168 -3.516643 18.365051
2.1352909 -2.4742892 18.989864
1.7624331 -3.5185342 18.426954
1.6645429 -3.0516212 18.482132
1.8151965 -2.7819302 18.274494
1.7651826 -3.0689468 18.356066
2.204982 -3.5498726 18.339359
2.193743 -3.4268119 18.350346
2.2444427 -3.5102043 18.367006
1.5721688 -2.918534 18.469547
1.532406 -2.8352375 18.473333
1.4355007 -2.7030334 18.463556
1.468423 -2.8492744 18.433998
2.3566883 -3.1098611 18.499937
3.2110963 -6.4179573 19.224049
2.3492882 -3.2757921 18.699986
3.1843543 -6.3350053 19.15884
-1.8138537 -1.4836001 18.995928
2.2192147 -2.3287115 18.893089
1.9314904 -3.3773453 18.456524
2.082278 -3.6174917 18.518272
2.2389719 -3.5687191 18.416838
1.7093107 -2.9953322 18.442242
3.2037756 -6.4176483 19.240538
1.825473 -2.9791334 18.294603
3.1777418 -6.3506665 19.182943
1.5904964 -2.7983372 18.433464
1.4658647 -2.6024635 18.428522
1.5056989 -2.7796216 18.392639
2.1419308 -2.1667683 18.791176
2.1710868 -2.4281113 18.948246
1.3940961 -3.0055172 18.53966
1.6002879 -2.7362654 18.401814
1.8338457 -3.2685645 18.2272
1.7430642 -2.9747355 18.413084
1.9498829 -2.710238 18.608826
2.0471892 -2.3420136 18.864859
2.1927562 -2.4001637 18.923054
1.9257332 -3.3380644 18.431364
-1.7497023 -1.6835749 19.009823
-1.5470661 -1.578913 19.091679
2.0681593 -2.3465188 18.874743
2.346931 -3.1989255 18.702103
2.0623519 -2.6687481 19.08379
1.6324195 -2.746793 18.403442
1.4468775 -2.5879622 18.447607
2.1102526 -2.4289336 18.434875
-1.7803524 -1.7572768 19.047403
3.1297469 -1.0797639 20.32798
2.2369828 -1.9978898 18.646616
1.5158917 -2.560776 18.558043
-1.9204082 -1.2185847 18.847952
-1.7310188 -1.3705857 18.910646
1.5424311 -3.0046396 18.572063
1.9420285 -2.5481815 18.956316
1.4606223 -2.6488791 18.651316
1.6856062 -2.8978028 18.683441
2.1294508 -3.046216 18.435976
-1.7011822 -1.3865027 18.871265
1.9635662 -2.464478 18.128222
1.8360894 -2.1225281 18.776117
2.178175 -2.9984174 19.133465
1.8264171 -2.6743603 18.558681
2.0862467 -2.9848566 18.605968
1.0951796 -2.0128856 18.432276
1.3100713 -5.9453354 17.297836
1.5180898 -5.6454859 17.354443
0.99492711 -5.9514461 16.990768
1.5027045 -5.6356382 17.353271
1.5192475 -5.5148687 17.375378
1.4423804 -5.6239614 17.326759
0.93691152 -6.0127277 16.94515
1.5229082 -5.6084867 17.321194
2.0541866 -2.3258708 18.895042
1.0179517 -5.8220968 16.954184
1.530964 -5.6013937 17.287567
1.5343881 -5.4411373 17.342981
2.0190406 -2.4076548 18.923372
1.8943504 -2.4670522 18.948118
1.0144999 -5.9396682 17.027483
1.4734012 -5.7043166 17.36775
1.5728351 -5.5314999 17.301165
1.5116918 -5.6412487 17.261068
2.0819795 -2.2908714 18.774302
1.7557782 -2.1011529 18.765675
-1.1689039 -0.28722203 18.314667
2.9522898 -2.244462 19.264662
2.5160055 -3.2203906 18.68574
2.4979136 -3.2568531 18.721191
-0.932558 -3.8070998 19.00771
2.7475505 -3.4091923 19.294981
2.9345276 -3.1061046 19.755136
2.990716 -6.5171599 19.243965
3.3813934 -6.1075058 18.876545
3.1269248 -6.3532596 19.112841
3.9807274 -5.62181 18.507576
4.4793248 -5.1530414 18.034227
1.7584301 -7.8270473 20.445789
3.5731375 -6.0954576 18.900734
3.3269594 -6.3376474 19.096682
3.3359056 -6.3265872 19.09568
3.3808289 -6.2385931 19.061058
3.9926162 -5.6562529 18.556328
5.3948689 -3.4533937 20.707872
6.4111657 -2.5142593 20.411474
3.0282106 -3.8362765 17.472324
3.0760083 -3.5979438 17.331661
3.0800056 -3.5764945 17.317545
3.0814722 -3.5656705 17.307177
3.0229712 -3.8422875 17.470491
2.9277596 -4.2585931 17.667503
3.0138366 -3.8845305 17.489058
3.0095761 -3.8932412 17.484356
2.9387815 -4.2042294 17.628618
2.998929 -3.9394891 17.498447
3.0115392 -3.8950586 17.490822
2.9326799 -4.2552686 17.651138
2.9821575 -4.004703 17.50309
2.9418063 -4.1871495 17.60734
3.8003688 -2.8703313 15.551852
2.0805488 -5.84443 21.754463
2.0852494 -5.8388224 21.5819
4.3168788 -2.2019651 14.724489
4.3089986 -2.2162268 14.718627
3.8096068 -2.863867 15.544904
4.3910341 -2.1502314 14.687666
4.3811769 -2.1220236 14.651947
2.0995204 -5.822722 21.603695
4.3078494 -2.2066329 14.734907
3.8100119 -2.8716736 15.544063
4.3811769 -2.1220236 14.651947
4.3077121 -2.20982 14.750749
2.3520975 -5.472723 19.988083
3.8543978 -2.8930109 15.536374
2.3545766 -5.4836841 19.952843
2.082175 -5.8403001 21.664982
2.0585761 -5.8629832 21.898594
2.0741794 -5.8784733 21.909094
2.0536692 -5.8288541 21.917608
3.5301924 -0.33680013 14.28607
2.9352682 -4.5630202 19.039883
3.5412235 -0.76186144 14.811834
3.4850292 -1.0271182 15.041031
3.5328038 -0.53896111 14.550014
3.5500205 -0.75341004 14.817551
3.5025339 -1.0214272 15.037248
3.4855986 -1.2130227 15.268172
3.4990582 -0.95905536 14.981588
3.0412874 -3.1921039 16.214855
3.5070279 -0.92734325 14.987072
3.0481241 -3.203341 16.179317
3.0852647 -2.9533792 16.460915
3.0614805 -3.200767 16.627508
3.048862 -3.2091889 16.204102
3.1017425 -2.9735587 16.449026
3.0700178 -3.1989443 16.667265
3.0440657 -3.1805279 16.282375
3.0826373 -2.9359097 16.442707
2.5509427 -1.0155874 15.652689
2.5885742 -0.99953067 15.607001
2.5706942 -0.99547833 15.629693
4.1489105 -0.76518571 14.403155
4.266685 -0.78233862 14.405048
-0.30044949 -2.7760079 20.373138
2.5658195 -0.99936873 15.635509
2.6011481 -0.98617727 15.592337
1.5367074 -2.71331 18.122435
1.5445209 -2.4306822 18.273518
2.7251151 -2.2665071 15.657653
1.5494798 -3.3334186 15.394912
1.2349849 -3.7020216 15.288279
-0.54852891 -6.6715984 14.22199
-0.549972 -6.6668072 14.216206
1.2564309 -3.6137016 15.28006
3.4483919 -6.367156 19.7712
0.29921278 -4.1364651 16.199244
2.2170832 -5.6044989 19.631104
2.3296263 -5.6264238 19.667086
4.4021468 -1.6334769 14.650276
4.3162231 -1.5829793 14.833739
4.3554602 -1.6777767 14.693628
3.6466429 -2.0046129 15.671356
2.2690439 -5.5590262 19.599937
1.6675779 -3.8081846 17.227476
-3.4002345 -5.7716432 17.565378
-3.4898527 -5.8052015 17.570013
-3.2537425 -5.7712426 17.598886
-3.3572307 -5.7756133 17.623838
-3.5540385 -5.8641539 17.724937
6.3301644 -2.1893532 16.108702
6.259603 -2.2234206 16.135904
5.9309435 -2.3989935 16.146704
3.3291337 -3.6138091 16.289379
0.58635253 -4.3205895 15.526077
2.5194688 -3.3369296 14.34108
2.6306088 -3.2496715 14.167969
1.7990369 -3.6906879 14.511103
-3.6853278 -5.8092971 17.855562
-4.2170725 -6.1456852 17.905228
-4.1345892 -6.1215358 17.869442
-4.2735705 -6.1764293 17.94846
-4.3098016 -6.1899881 17.958881
3.5641925 -3.1500947 16.776896
3.1841726 -3.251545 16.53245
3.4797146 -3.1724317 16.748024
3.6064985 -3.1359606 16.771339
3.4820778 -3.1715186 16.755592
2.7232921 -3.4582088 17.212435
2.687429 -3.4663498 17.3279
2.6879408 -3.465728 17.327932
2.7210493 -3.4581726 17.214714
2.7237508 -3.459162 17.212934
2.7228506 -3.4601977 17.212048
4.8192282 -1.6082429 14.405447
6.1778412 -0.53886265 13.306738
4.8248577 -1.605298 14.402802
4.8094611 -1.6109291 14.408142
4.8399506 -1.5093198 14.329843
6.1752172 -0.54054934 13.307992
4.820138 -1.6064762 14.404083
4.8199725 -1.5246311 14.344658
6.1772575 -0.53953856 13.307349
4.7931771 -1.5664576 14.370397
4.8197412 -1.5251238 14.34497
4.819757 -1.6056328 14.404325
4.8209925 -1.5238582 14.342534
4.7999053 -1.5628543 14.366405
4.7665691 -1.5958346 14.398106
6.1731057 -0.54235268 13.30917
4.8012891 -1.5360032 14.354489
4.8488789 -1.5838004 14.375826
4.8126521 -1.5335995 14.35054
4.7557378 -1.5976537 14.401304
4.7988119 -1.5383788 14.354997
4.8016891 -1.5376748 14.364246
4.7951927 -1.5346024 14.348243
4.8548965 -1.5922997 14.433807
4.7947307 -1.5348221 14.348894
4.7975802 -1.5387424 14.354027
4.8541174 -1.5926265 14.432487
4.7938919 -1.5344473 14.34927
4.7999792 -1.5327863 14.358996
4.7965031 -1.5403161 14.353325
4.7926073 -1.5254759 14.351409
4.7952361 -1.5329736 14.350118
4.8546014 -1.5906078 14.43548
4.8575315 -1.5931712 14.441319
4.7939997 -1.5325016 14.349509
4.8537779 -1.5914526 14.434546
4.8514519 -1.5914565 14.431643
4.8603587 -1.5947199 14.439116
4.8212118 -1.5798407 14.364711
4.8486304 -1.5704924 14.44208
4.6480398 -1.7381936 14.049088
4.7772331 -1.6187681 14.28444
4.7764025 -1.6187986 14.284817
4.7778516 -1.6188636 14.287185
4.7638125 -1.6304843 14.261345
4.7748947 -1.6189077 14.286739
4.779758 -1.6185689 14.286216
4.777318 -1.6201251 14.28876
4.7632289 -1.6304935 14.261642
4.7197046 -1.7405626 14.194144
4.7763023 -1.6193265 14.290908
4.7909002 -1.6026562 14.317776
4.7188163 -1.7409329 14.192619
4.7664685 -1.6280218 14.262064
4.7889905 -1.6028006 14.318231
4.7768416 -1.6192102 14.296018
4.7266912 -1.7165589 14.269649
4.7275229 -1.7159562 14.272966
4.7929306 -1.6216128 14.340415
4.7201009 -1.7136742 14.27509
4.7348032 -1.7150661 14.267678
4.7905908 -1.6212778 14.340417
4.7285299 -1.7245212 14.266984
4.7299862 -1.7146808 14.270355
4.7647204 -1.6569169 14.306209
4.7336712 -1.7254896 14.26387
4.5776567 -1.8185099 14.332696
4.7673707 -1.6585149 14.305077
4.7290301 -1.7163162 14.270497
4.7669706 -1.6603377 14.30439
4.7935228 -1.6780688 14.330215
4.7510409 -2.0188658 14.267188
4.7299137 -1.7175821 14.264742
4.7299027 -1.7174799 14.263967
4.8071322 -1.6632065 14.346479
4.7311759 -1.7179056 14.262974
4.8092794 -1.6639972 14.344757
4.7969632 -1.6708764 14.336813
4.7283511 -1.7179668 14.264484
4.7915721 -1.6761791 14.328182
4.7306485 -1.7204242 14.26022
4.7993646 -1.6695542 14.335367
4.8067226 -1.6645961 14.344965
4.7280884 -1.7203294 14.26034
4.8077984 -1.6970901 14.339532
4.8101377 -1.6943547 14.339787
4.8020463 -1.7057043 14.331383
4.8029962 -1.7027727 14.331067
4.8069887 -1.7010647 14.334261
4.8058691 -1.6959358 14.337839
4.8133769 -1.6884294 14.343913
4.8038654 -1.7088859 14.330033
4.8109131 -1.6865971 14.345568
4.7970481 -1.7088641 14.326762
4.8089423 -1.695289 14.335513
4.8048978 -1.7073215 14.330118
4.8202534 -1.6610968 14.371239
4.7967072 -1.7152514 14.319534
4.8016119 -1.707528 14.330517
4.7972565 -1.7105753 14.324705
4.8039308 -1.7031631 14.333569
4.8056679 -1.6964906 14.3358
4.8110523 -1.686877 14.344151
4.8234034 -1.6620411 14.369034
4.797945 -1.7116262 14.322421
4.8060288 -1.6971821 14.33443
4.8120093 -1.6882942 14.342056
4.8205595 -1.6625741 14.368712
4.8177152 -1.6607879 14.373551
4.8100533 -1.6853117 14.346594
4.7958741 -1.7100998 14.324738
4.7913251 -1.7376579 14.313459
4.8076 -1.6712071 14.341845
4.8014035 -1.6786443 14.332758
4.8087564 -1.6713248 14.341023
4.7926497 -1.6862819 14.326875
4.8034701 -1.6793224 14.330847
4.8100634 -1.6717328 14.338518
4.8024964 -1.6778934 14.333138
4.8054357 -1.6703708 14.346272
4.8009896 -1.6791795 14.335027
4.7969022 -1.6857179 14.319527
4.8081446 -1.6724257 14.342934
4.795598 -1.6868726 14.319818
4.8111391 -1.6714081 14.337284
4.7831545 -1.6847749 14.322549
4.8096099 -1.67117 14.338668
4.7884159 -1.6847216 14.331995
4.7880468 -1.6868652 14.316504
4.8099284 -1.7437137 14.353097
4.815002 -1.7417257 14.345628
4.8100181 -1.7436901 14.350353
4.8133569 -1.7405133 14.354908
4.8144307 -1.7414596 14.345759
4.8129411 -1.7406337 14.353349
4.811512 -1.7424263 14.347795
4.4051313 -1.5165261 14.922507
4.7849045 -1.7323382 14.325173
4.907197 -1.6443515 14.447905
4.3240218 -1.4454746 15.041282
4.7858934 -1.7328258 14.322679
4.7852139 -1.7336446 14.322558
4.7858896 -1.734301 14.321025
4.7872524 -1.7336622 14.321635
4.7918606 -1.7289804 14.328886
4.7916989 -1.7289329 14.327305
4.7868166 -1.7351058 14.320486
4.7896795 -1.7306412 14.32937
4.779398 -1.7334964 14.330256
4.9229436 -1.6541601 14.449567
4.9221005 -1.6539578 14.449448
4.9232879 -1.654307 14.448536
4.9220939 -1.655557 14.448757
4.9235058 -1.6541673 14.446887
4.7221284 -1.711853 14.27898
4.7240157 -1.7194971 14.274908
4.7229338 -1.7145847 14.274786
4.7224393 -1.7143363 14.273637
4.7905107 -1.7147439 14.32687
4.7213798 -1.7147641 14.274394
4.9334512 -1.7241948 14.427677
4.6141658 -1.8467456 14.238111
4.9816947 -1.6996899 14.460146
4.9811211 -1.6979939 14.457109
4.8960142 -1.7624812 14.394159
4.8943434 -1.7630193 14.393102
4.9805169 -1.6980321 14.458681
4.770278 -1.9417218 14.405267
4.7705827 -1.9390187 14.405289
4.770328 -1.9394954 14.404241
4.8934908 -1.7633251 14.393668
4.9796596 -1.6992469 14.46016
4.7668753 -1.9448938 14.408497
4.7704263 -1.9424067 14.40411
4.770133 -1.9393667 14.404357
4.7763314 -1.9330225 14.400124
4.7681088 -1.9423991 14.406431
4.7709751 -1.9394916 14.402494
4.89429 -1.7636646 14.394424
4.7759995 -1.9330389 14.399882
4.9803958 -1.6995416 14.461376
4.9459996 -1.7170116 14.430285
4.770103 -1.9389957 14.402116
4.774096 -1.9341319 14.400712
4.8929782 -1.7634434 14.393755
4.9835849 -1.6999116 14.457357
4.7702169 -1.9379104 14.402185
4.7726398 -1.9344805 14.4001
4.7732325 -1.9356587 14.398694
4.7685628 -1.9396774 14.401639
4.7677112 -1.9432058 14.405078
4.9497766 -1.7152768 14.432173
4.7666903 -1.9440764 14.404209
4.7716889 -1.9402856 14.396225
4.9500751 -1.714148 14.430556
4.8935113 -1.7656926 14.39426
4.7688737 -1.9366829 14.401213
4.8913603 -1.7619206 14.399987
4.9760599 -1.6959612 14.460289
4.979455 -1.6961713 14.458933
4.8006034 -1.9453021 14.382445
4.95259 -1.7187409 14.423265
4.9680591 -1.6945153 14.465399
4.972671 -1.6948649 14.463361
4.7993789 -1.9435661 14.384508
4.9497743 -1.7180862 14.425346
4.9738798 -1.6947502 14.460361
4.8065228 -1.9521006 14.37246
4.8068275 -1.913021 14.37851
4.8113265 -1.9187818 14.371024
4.894299 -1.7647719 14.403271
4.9855604 -1.6970625 14.451318
4.9667869 -1.6927297 14.465248
4.8111124 -1.9162754 14.370691
4.8921461 -1.7621751 14.403206
4.9472456 -1.7146405 14.429089
4.8065014 -1.9126637 14.378633
4.9937129 -1.6961104 14.443902
4.8884974 -1.7624192 14.404608
4.9942083 -1.6959164 14.441109
4.8749533 -1.772706 14.408576
4.9700503 -1.7176243 14.413879
4.8985515 -1.7671894 14.393605
4.8176851 -1.9231759 14.360249
4.944675 -1.7033885 14.486176
4.9516048 -1.7065109 14.480295
4.9542294 -1.7068768 14.478856
4.8551445 -1.7641413 14.424838
4.8754058 -1.7697146 14.405403
4.9381294 -1.7229722 14.476402
4.7111235 -1.9439244 14.430893
4.9467506 -1.7243363 14.47051
4.943779 -1.7233684 14.472198
4.716249 -1.9471993 14.42331
4.9349966 -1.7220535 14.477951
4.7349343 -1.9472405 14.39948
4.9239011 -1.7201475 14.481081
4.9534297 -1.7217333 14.462476
4.8173599 -1.9539486 14.371758
4.788156 -1.9270914 14.409152
4.7925763 -1.9256519 14.400521
4.8114443 -1.9520724 14.373972
4.7997622 -1.9255558 14.389942
4.8071337 -1.9457748 14.385635
4.7939277 -1.9267538 14.398573
4.7858577 -1.9076567 14.409979
4.80159 -1.9198147 14.387237
4.7844162 -1.9217046 14.411942
4.7891998 -1.9094523 14.405119
4.8027153 -1.9077997 14.39867
4.7979102 -1.905138 14.405321
4.8166804 -1.9550524 14.369861
4.7925987 -1.9195436 14.397633
4.7943873 -1.9046588 14.408419
4.806644 -1.9490724 14.382252
4.9329929 -1.7204314 14.536111
4.7790461 -1.909031 14.354372
4.8972626 -1.9256984 14.354842
4.8970766 -1.9257934 14.353947
4.9900808 -1.845028 14.447138
4.9788828 -1.8408024 14.453626
4.9846387 -1.8517981 14.438306
4.9015465 -1.9335368 14.351798
5.0078864 -1.8624927 14.512295
4.8573661 -1.9714746 14.497706
4.8588428 -1.9703918 14.496122
4.8901191 -1.9537555 14.481338
5.0137825 -1.8565999 14.511592
4.8975048 -1.9474804 14.478706
5.0043077 -1.8605013 14.513262
4.8569117 -1.9691101 14.497243
4.8913736 -1.9548839 14.479796
4.8556972 -1.9686127 14.497557
4.8900151 -1.9560915 14.480752
5.0124626 -1.8578417 14.510691
4.8600092 -1.9746221 14.494006
4.8879805 -1.9542425 14.482498
4.8978333 -1.9482594 14.478898
5.0101924 -1.8624798 14.50896
4.8555908 -1.9710839 14.498227
4.8887029 -1.9542081 14.483087
5.0064049 -1.8588628 14.512008
4.8593249 -1.9752266 14.495523
4.854322 -1.9730878 14.500628
4.8566742 -1.974242 14.499585
4.7067327 -1.7850807 14.637291
4.6921062 -1.7669737 14.648047
4.6749816 -1.7502322 14.65848
4.6923466 -1.7748731 14.643595
4.8838787 -1.9865203 14.503386
4.7270584 -1.7667038 14.642635
4.8558941 -1.9569991 14.524481
4.815516 -1.9105365 14.555983
4.831399 -1.9272507 14.542812
4.8862319 -1.9258463 14.529449
4.8959365 -2.0014386 14.492661
-6.2265787 -20.49943 45.058754
-5.1894894 -22.256531 49.339691
-4.673173 -21.588173 50.653679
-5.501442 -21.573042 48.251106
-5.4106078 -23.510473 49.215614
-6.28543 -20.275972 44.516335
-5.1843352 -26.969154 51.536026
-5.5823126 -23.482441 48.966042
-4.8829503 -22.049406 50.110928
-4.6473041 -21.53907 50.601513
-5.2606735 -19.276821 47.100338
-5.1391678 -21.685244 49.201283
-5.079855 -18.934109 47.611572
-4.6080055 -21.388636 50.511379
-4.1802912 -22.993059 52.627407
-6.1778011 -23.213768 52.674297
-6.2370248 -23.304907 52.78149
-7.0861573 -23.803556 54.104401
-7.0888224 -23.807688 54.108097
6.040637 0.85600847 15.327277
5.8627243 0.25372833 15.037005
6.0433407 0.86632055 15.331917
6.0435243 0.8671689 15.332562
5.8708301 0.27997628 15.043132
6.033937 0.8486675 15.327397
5.8643045 0.25660628 15.039391
6.0601745 0.90437984 15.346451
6.013947 0.5709815 15.151427
5.8716803 0.27424037 15.042027
5.8852472 0.31773955 15.049747
6.0324931 0.86441463 15.339028
7.8696628 1.9043477 16.76124
7.7099328 1.7408836 16.619425
8.264761 2.3730609 17.069613
7.7187285 1.7411746 16.624704
7.7155352 1.7484882 16.620655
8.5383539 2.7347009 17.314085
8.6846743 2.8804309 17.398806
7.6944332 1.7604151 16.623741
8.6898079 2.877466 17.39271
8.5651426 2.7451775 17.313421
7.7093906 1.7785606 16.597815
7.9153628 2.0411558 16.82736
10.860131 11.445863 -3.3971579
11.202034 12.256769 -4.2664084
11.088269 11.880994 -3.391165
11.872499 12.837074 -2.6200919
12.869143 18.06781 -17.546787
10.220912 8.1064739 6.6097188
9.785552 7.0993271 8.0866671
12.284843 16.004921 -12.797967
10.673465 10.698145 -1.1644781
10.062336 7.7398996 7.132843
9.9494228 7.4885321 7.4997392
10.11689 8.5762196 3.7685351
10.099803 8.5143442 3.8986413
10.933107 11.251547 -2.8802106
9.1492882 5.6146102 10.384033
9.1038561 5.5596809 10.415907
10.712674 10.509387 -0.97818881
9.3801622 6.1566439 9.5451374
8.9403944 5.1901345 10.97274
9.3364668 6.0535135 9.6955166
9.6366167 6.7438259 8.6172476
8.8289232 4.9377851 11.345775
9.3498383 6.0914779 9.6466541
9.7242584 6.9793434 8.1523027
9.5977449 6.6396217 8.7366257
9.5192871 6.4491954 9.1342974
9.4837437 6.3523321 9.3605614
9.2288284 5.8813233 9.9242191
9.8795109 7.1307082 8.1818295
10.295251 8.0240479 6.5206189
10.260389 8.0860319 6.5869074
10.713119 9.3046551 4.122169
10.421513 8.4422979 6.0529318
9.120863 5.210331 11.515673
9.0734348 5.0638752 11.815926
10.134892 8.3624125 5.7603793
10.557848 9.5386887 3.9301832
9.0550089 5.268445 10.809233
9.3151894 5.9755278 9.8112211
9.1341095 5.4826188 10.506851
9.0950203 5.3813143 10.656753
9.3032255 5.9438248 9.8571959
9.2510948 5.8045316 10.051065
8.8959198 4.8463206 11.423132
10.238581 8.5010576 6.1742258
9.981101 7.8136849 7.1607051
10.793805 11.486866 -0.79101998
9.7906456 7.3388391 7.9394927
9.8107252 7.393599 7.86341
10.098462 8.1795645 6.8182263
9.4376326 6.292727 9.350543
9.056653 5.5768309 10.304315
7.7664285 3.2118154 14.240714
7.7682881 3.2140186 14.24001
7.3886018 2.3481019 14.575253
7.7704229 3.2146623 14.239306
7.3978868 2.3571076 14.567993
7.7710705 3.2190216 14.238967
6.3821535 1.047385 15.102292
7.7514591 3.1884222 14.247879
5.8324957 0.61448818 15.815738
5.8217688 0.59541321 15.823194
6.8240328 1.7941384 14.320072
2.1487119 -3.0527892 16.833849
2.1276259 -3.0985968 16.871277
3.7958999 0.60811841 14.632658
4.0130186 1.2418054 14.507762
5.4076042 2.3201272 14.244586
1.817067 -1.657492 15.952293
6.6707749 1.5134863 14.384748
6.6016574 1.483969 14.393215
4.2789454 1.3605479 14.440537
7.1809063 -0.8860994 15.81341
7.051271 -0.90774143 15.812472
7.2021894 -0.77522814 15.743308
6.9921546 2.4453609 14.234165
3.7012596 -0.29416171 15.008258
6.9202805 -0.88007486 15.797123
6.8462644 -0.85891825 15.770165
0.10291037 -0.37058392 19.577103
6.3572497 0.85332578 14.619314
4.7303743 0.99021345 14.415662
4.3660741 3.3223753 14.81464
7.4607849 4.0176034 14.515388
3.7203743 0.51214194 14.660812
5.1026669 1.6881363 14.289764
2.1978707 -2.9256251 16.739523
2.1138113 -3.0851555 16.846975
4.3387165 3.2298853 14.786277
2.6069727 3.2403774 16.447531
3.9840333 1.1210791 14.537004
3.4521525 -0.72429943 15.231169
0.4333939 -1.70988 18.570518
0.19824353 -1.6882778 19.084484
6.3831983 0.2994799 14.918425
